# .PCD v0.7 - Point Cloud Data file format
VERSION 0.7
FIELDS x y z
SIZE 4 4 4
TYPE F F F
COUNT 1 1 1
WIDTH 1269
HEIGHT 1
VIEWPOINT 0 0 0 1 0 0 0
POINTS 1269
DATA ascii
0.047497369 0.024704589 0.0030097412
-0.047051389 0.02692912 0.0029436243
0.047338098 0.026792947 0.002951347
-0.047499977 0.028941462 0.002984961
0.047500003 0.029050749 0.0029380322
-0.047500011 0.03104707 0.0030659551
0.047499999 0.031034004 0.0030128518
-0.047062077 0.032653201 0.0029545818
0.047500022 0.032946885 0.0029779989
-0.047102991 0.035131652 0.0030161538
-0.044997029 0.035500038 0.0029356861
-0.043002706 0.035500038 0.0030318785
-0.041058563 0.035500038 0.0030161291
-0.038563434 0.03491313 0.0029685288
-0.037043463 0.035500038 0.0030416998
-0.034957789 0.035500038 0.0029868623
-0.032922052 0.035220772 0.003009615
-0.030813737 0.035425901 0.0028493144
-0.029039836 0.035500042 0.0030528493
-0.026760831 0.035500038 0.0029540975
-0.025008217 0.035500038 0.0029622726
-0.02303616 0.035199579 0.0028795023
-0.020672577 0.03502728 0.0029063257
-0.0188102 0.035158806 0.0028852338
-0.016778706 0.035500038 0.002953016
-0.014989519 0.035283398 0.0029369358
-0.01301988 0.035500038 0.0029553843
-0.011035957 0.035500038 0.0029945767
-0.0090430407 0.035500042 0.0030136274
-0.0070135524 0.035500038 0.0029761808
-0.0047860644 0.035433397 0.0028970141
-0.0030200265 0.035387415 0.0029180888
-0.0010271538 0.035500038 0.0030738562
0.00084235176 0.034811031 0.0028857545
0.0032217528 0.035500042 0.0029737488
0.0050999383 0.035500038 0.0029204697
0.0068559372 0.035233472 0.0029076741
0.0089204349 0.035500038 0.0029872116
0.010771954 0.035322685 0.0028982239
0.013009374 0.035500038 0.0029327865
0.014943074 0.035500038 0.0029540546
0.016979309 0.035500038 0.0029892242
0.018949831 0.035500042 0.0030266943
0.020924389 0.035146806 0.003008368
0.022942662 0.035500038 0.0029754601
0.024956193 0.035500038 0.0029994582
0.027068887 0.035500038 0.0030624594
0.029038863 0.035500038 0.0030016252
0.030664854 0.035114169 0.0029817924
0.033010229 0.035500038 0.0030055402
0.035031561 0.035500038 0.0030070799
0.036622971 0.035240363 0.002937563
0.03863436 0.035150286 0.0030074625
0.040976387 0.035500038 0.0030114015
0.042798016 0.035455029 0.002892606
0.04501377 0.035500038 0.0030052806
0.047145452 0.034887619 0.0029852458
-0.047068946 -0.034860987 0.0048906649
-0.045023777 -0.035411097 0.0049449424
-0.042995535 -0.035500042 0.0050564576
-0.040852942 -0.035161946 0.0049589984
-0.039007843 -0.035500038 0.004944934
-0.037069611 -0.035365831 0.0050289766
-0.034690827 -0.035336349 0.0048317332
-0.032961145 -0.035500042 0.0050732945
-0.030924965 -0.035469588 0.0048907814
-0.028815312 -0.035500038 0.0049966178
-0.026914397 -0.035145041 0.0049640588
-0.024922773 -0.035500038 0.0050835935
-0.022915339 -0.035227045 0.004885335
-0.020995447 -0.035500038 0.0050056218
-0.018968947 -0.035500038 0.0050721024
-0.017263353 -0.034675028 0.0047445176
-0.014981797 -0.035500042 0.0050177709
-0.012612708 -0.03520361 0.004961282
-0.011027731 -0.035500042 0.0050327252
-0.0086990893 -0.034805488 0.0047197589
-0.0070015979 -0.035118319 0.0049866238
-0.0050617349 -0.035497911 0.0049464656
-0.0030187017 -0.035118319 0.0049350145
-0.0010722886 -0.035499968 0.0050175064
0.0011463433 -0.035135936 0.0050135506
0.0030190076 -0.035500038 0.0050137346
0.0049543488 -0.035500038 0.0049779373
0.0070099472 -0.035500038 0.0050485241
0.0092175594 -0.035325419 0.0049632816
0.011133432 -0.035208922 0.004863515
0.013019357 -0.035500038 0.0050032218
0.014934844 -0.035500038 0.0050132936
0.01716839 -0.035255354 0.0049600182
0.019032517 -0.035500038 0.0049891393
0.021148041 -0.035124376 0.0049761799
0.022915814 -0.035138331 0.0049054506
0.024961121 -0.035500038 0.0050008586
0.027006237 -0.035500038 0.0049875886
0.029027032 -0.035500042 0.0050319121
0.031050919 -0.035500038 0.0050278888
0.032979108 -0.035500038 0.0049767853
0.034944523 -0.035121478 0.0048905211
0.03697183 -0.035500038 0.0049937665
0.038997706 -0.035500038 0.0050138617
0.041010719 -0.035500038 0.0049869171
0.04269211 -0.035321087 0.0048918338
0.045008894 -0.035500038 0.0049622082
0.04709921 -0.035172906 0.0050213514
-0.047499977 -0.032982912 0.0050302208
0.04750004 -0.033070795 0.0050182082
-0.047499951 -0.030988675 0.004985698
0.047500011 -0.030999759 0.0050336882
-0.047500011 -0.028992746 0.0050469767
0.047499999 -0.029045565 0.0049416348
-0.047499988 -0.027045712 0.0049328669
0.047500011 -0.026964087 0.0050209588
-0.047187235 -0.024739927 0.0048871809
0.047360402 -0.024781747 0.0048698615
-0.047499981 -0.02302292 0.0050254571
0.047499985 -0.02299097 0.0049646995
-0.04749997 -0.021037603 0.0050152298
0.046991035 -0.020761397 0.0049166395
-0.047184851 -0.018879034 0.0048827585
0.047500011 -0.019055564 0.0050348863
-0.047500014 -0.01695304 0.0050077396
0.047435131 -0.016704001 0.0049413908
-0.047500025 -0.014994041 0.0050046719
0.047404397 -0.01488646 0.0049396325
-0.047499966 -0.012934133 0.0049498207
0.047500007 -0.012926229 0.0050120251
-0.047206841 -0.010784377 0.0049289707
0.047499973 -0.011055693 0.0049880687
-0.047500011 -0.0089479545 0.005000873
0.047500033 -0.0089690583 0.0050056176
-0.047500007 -0.0069750105 0.0050525549
0.047500018 -0.0070670508 0.0050455807
-0.047500018 -0.0050343378 0.0049873716
0.047499973 -0.0050123874 0.0050225668
-0.047109984 -0.0032274213 0.0050036982
0.047500014 -0.0029800476 0.005003226
-0.047500011 -0.001000904 0.0050421935
0.047500037 -0.00098336244 0.0049906578
-0.047282163 0.00082961522 0.0049588801
0.047499988 0.0010977946 0.0049949191
-0.047162306 0.0029876393 0.0049111284
0.047499977 0.0029155097 0.0049457783
-0.047499999 0.0049888436 0.0050442587
0.047499985 0.004981346 0.0049750162
-0.047366522 0.0067533562 0.0049531003
0.047074579 0.007033647 0.0048965625
-0.047499992 0.0090594571 0.0049645756
0.047500007 0.008973036 0.0050034951
-0.04749997 0.011038303 0.0050089932
0.047499988 0.011024762 0.0049613686
-0.047500029 0.012971564 0.005065796
0.047097754 0.01284214 0.004924566
-0.047261946 0.014738779 0.0048643681
0.047500007 0.015018042 0.0050170892
-0.047500007 0.017100552 0.0049147909
0.047499958 0.016994042 0.0050357496
-0.047081463 0.018977363 0.0050288951
0.047500011 0.019091439 0.0050597861
-0.04749997 0.02097539 0.0049589598
0.047499962 0.021016199 0.0050154272
-0.047388442 0.022765856 0.0049178139
0.047499951 0.023019038 0.0049777469
-0.047499981 0.025026852 0.0049969782
0.047500029 0.024692053 0.0049942634
-0.047499966 0.027026199 0.0050042528
0.047321461 0.026742848 0.0049635926
-0.047500025 0.029051833 0.0050073862
0.046547823 0.028717171 0.0046741511
-0.047500022 0.031023027 0.004996859
0.047499977 0.031021886 0.0049771098
-0.046925094 0.032847155 0.0048894542
0.047439154 0.032524507 0.0049457122
-0.046824958 0.035132162 0.0049780039
-0.045048274 0.035312857 0.004889485
-0.043006435 0.035500038 0.0049746283
-0.041064188 0.035434946 0.0049939831
-0.037734564 0.034726325 0.0046376404
-0.036999099 0.035500042 0.0049713301
-0.034990594 0.035500042 0.0049910685
-0.032942254 0.034917492 0.0049109906
-0.03104513 0.03513848 0.0050545386
-0.028618889 0.035140447 0.0047519924
-0.027025133 0.035500038 0.0050798291
-0.024969295 0.035500038 0.0049761222
-0.023091894 0.035184491 0.0048698648
-0.021002606 0.035500038 0.0049376092
-0.018828236 0.035500038 0.0049362229
-0.017104795 0.03521305 0.004973365
-0.015080666 0.035369236 0.0049195033
-0.012955601 0.035500038 0.0049608108
-0.011033017 0.035500038 0.0050255847
-0.0089950347 0.035500038 0.0049580275
-0.0070511266 0.035500038 0.0049938536
-0.005067531 0.035500042 0.0049199122
-0.0030282147 0.035500038 0.0050069033
-0.00096954091 0.035500038 0.0049822424
0.00099088671 0.035500038 0.0050366432
0.0031852734 0.035169806 0.0048780888
0.0049879602 0.035500038 0.0049686013
0.0068409215 0.035305958 0.0048486427
0.0090040937 0.035087783 0.0048793047
0.010960892 0.035399333 0.0049819346
0.013047735 0.035500038 0.0049709482
0.015081583 0.035500038 0.0049982569
0.016631944 0.035238676 0.0049523506
0.018840175 0.035270359 0.0048669414
0.021005882 0.035500042 0.0049923682
0.022901185 0.035500038 0.0049930592
0.024961943 0.035500038 0.0050087511
0.026984589 0.035500042 0.0049870634
0.028958004 0.035478171 0.0049028317
0.03055569 0.035291888 0.0049074162
0.033048965 0.035500038 0.0050405753
0.034991194 0.035500038 0.0049726656
0.037078388 0.035238318 0.0050477656
0.038945556 0.035500038 0.0049406062
0.040557928 0.035286039 0.0047876909
0.0430164 0.035500038 0.005006209
0.045041263 0.035500038 0.0050147357
0.046825174 0.035021432 0.0048960792
-0.047136314 -0.035093598 0.0070141135
-0.044966266 -0.035500038 0.0070057465
-0.043053456 -0.035500038 0.0069904439
-0.041047022 -0.035500038 0.0070422748
-0.038986724 -0.035500042 0.0070306137
-0.037000328 -0.035500038 0.0070402017
-0.035010457 -0.035500038 0.0070148883
-0.033060052 -0.035448313 0.0069706957
-0.031038851 -0.035500038 0.0069760741
-0.02899068 -0.035500042 0.0070212162
-0.027048228 -0.035500042 0.0070180525
-0.024684191 -0.035442188 0.0069548367
-0.022098862 -0.034885246 0.0067388993
-0.020908076 -0.035500042 0.0070410534
-0.0189228 -0.035213381 0.0068213083
-0.016983498 -0.035500038 0.0070534647
-0.014610835 -0.035143573 0.0068721324
-0.012981558 -0.035500038 0.0070507363
-0.010764382 -0.035075061 0.0069005452
-0.0089684892 -0.035500038 0.0070038997
-0.0070801568 -0.035368118 0.0069419434
-0.0049723107 -0.035500038 0.0069649001
-0.0028347957 -0.035163686 0.006925032
-0.00093557988 -0.035500042 0.0069092629
0.00097049423 -0.035500038 0.0069918204
0.0033231729 -0.035044909 0.0069140489
0.0049293428 -0.035500038 0.0069476999
0.0068830061 -0.035300318 0.0069459458
0.0088644065 -0.035500038 0.0069425241
0.011009019 -0.035500038 0.0070365267
0.012998478 -0.035500038 0.0069652055
0.015087311 -0.034625404 0.0067399167
0.017017193 -0.035500038 0.0069826017
0.019061958 -0.035500038 0.007030773
0.021031603 -0.035500038 0.0069764745
0.022979829 -0.035500038 0.0069963248
0.024845423 -0.035398033 0.0069164149
0.02674211 -0.035500038 0.0068818354
0.029018143 -0.035500038 0.0069580954
0.030988159 -0.035500042 0.0069610137
0.032613274 -0.035273507 0.0069245184
0.034744684 -0.03511025 0.006748979
0.036633596 -0.035479266 0.0068971221
0.038927071 -0.035500038 0.0069806483
0.040660281 -0.035418604 0.0068401429
0.043029726 -0.035500038 0.0070331125
0.044980336 -0.035500038 0.0070203571
0.046877563 -0.03481254 0.00703442
-0.047499992 -0.033035059 0.0070263743
0.047499981 -0.033021078 0.0069576604
-0.047499981 -0.030977484 0.0070216372
0.047239091 -0.030796606 0.006912847
-0.04746921 -0.028954549 0.0068559861
0.047499977 -0.028991178 0.007030488
-0.047400225 -0.026692044 0.006993297
0.047500003 -0.026995422 0.0070476085
-0.047499962 -0.024966538 0.0070253676
0.047499981 -0.024945835 0.0069553945
-0.047361277 -0.023041334 0.0069518397
0.047341578 -0.022997443 0.0067668571
-0.047189053 -0.02084722 0.0068576122
0.047499992 -0.021010552 0.0069108708
-0.047474992 -0.018922742 0.0068634106
0.046999414 -0.019050965 0.0069859498
-0.047500029 -0.017004995 0.0070672366
0.047500011 -0.01708645 0.0069685723
-0.047500018 -0.015001357 0.0069703595
0.047293335 -0.014970398 0.007000234
-0.047499977 -0.013005279 0.0070090075
0.047380053 -0.013143138 0.0069626202
-0.047500014 -0.010956242 0.006960752
0.047379725 -0.01059622 0.006793777
-0.047499966 -0.0090157688 0.0070010633
0.047499992 -0.0090585873 0.0069884825
-0.047499999 -0.0070051216 0.0069782664
0.047089227 -0.0068995105 0.0069381506
-0.047293812 -0.0050967443 0.0067829252
0.046801142 -0.0049482258 0.006792272
-0.047385901 -0.0032180292 0.006955693
0.047500003 -0.0030012964 0.0070082033
-0.047499981 -0.001062671 0.0069927187
0.047500011 -0.00098260294 0.0069667953
-0.04730501 0.00095207081 0.0069816443
0.047393277 0.00078419119 0.0068268823
-0.04659139 0.0031260683 0.0067514251
0.047002617 0.0030714539 0.006914041
-0.047112498 0.0048497464 0.0068570063
0.047298938 0.0048367768 0.0068123043
-0.047499981 0.006958839 0.0070163696
0.047500011 0.006961077 0.0069697578
-0.047499981 0.0089862868 0.0069302525
0.047500011 0.008979422 0.0070089432
-0.047466557 0.01115884 0.0068936585
0.047496065 0.011073643 0.006931141
-0.047497708 0.012903851 0.0069360947
0.047500014 0.013001779 0.0070552416
-0.047499992 0.014974724 0.0070222621
0.047499996 0.014924148 0.007079219
-0.047500011 0.016938196 0.0069848974
0.047500018 0.017033175 0.0070262481
-0.047498889 0.018843275 0.0069460184
0.047134891 0.018753296 0.0068974551
-0.047369689 0.02075395 0.0069601168
0.04739454 0.020712912 0.0069142422
-0.047248736 0.022989327 0.0068445303
0.047500011 0.022981534 0.0069861808
-0.047500014 0.024911653 0.0070374785
0.047267612 0.024730707 0.0067777717
-0.04706141 0.026683835 0.0069397674
0.046705924 0.026454823 0.0068033212
-0.047499977 0.028946614 0.0070106257
0.047500022 0.029005751 0.0070208828
-0.047500003 0.030866422 0.0069673685
0.047499992 0.031046268 0.0070337015
-0.047428139 0.03270378 0.006995888
0.047067158 0.032739464 0.0069076139
-0.047131348 0.035082642 0.0069656284
-0.045029059 0.035500038 0.0070646331
-0.042859755 0.035128925 0.0069077634
-0.040760599 0.035253469 0.0068388148
-0.039039351 0.035500038 0.0070285657
-0.037029922 0.035500038 0.0070495466
-0.034578644 0.035421629 0.0068928297
-0.032678436 0.035498917 0.0069866036
-0.030993674 0.035500038 0.0069831982
-0.029016431 0.035500038 0.0069809151
-0.02700372 0.035500038 0.0069244099
-0.024952281 0.035500038 0.0069871484
-0.023023358 0.035500038 0.0069814399
-0.021021212 0.035500038 0.0069119581
-0.019012837 0.035500042 0.0070372727
-0.017103149 0.035447888 0.0069043278
-0.014984343 0.03529954 0.0068864729
-0.013085152 0.035500038 0.0069651236
-0.010974242 0.035500038 0.0069806599
-0.0091016339 0.035161026 0.0069126692
-0.0067755687 0.035412673 0.0068591894
-0.0053627067 0.034813393 0.0068194889
-0.0029829112 0.035207458 0.0069217244
-0.0010407621 0.035500038 0.0070168297
0.00096441241 0.035130247 0.0069245845
0.002994247 0.035500038 0.0069454331
0.0049222289 0.035500038 0.0069753579
0.0069575496 0.035500038 0.006974583
0.0089886319 0.035500038 0.0070217396
0.01096184 0.035500038 0.007042422
0.012820935 0.035426036 0.0068479395
0.015091364 0.035270818 0.0070189876
0.017225623 0.035148554 0.0069460361
0.01901097 0.035500038 0.0069393762
0.02062032 0.035421405 0.0068762386
0.022972293 0.035500038 0.0070261057
0.02487888 0.035126355 0.0069773048
0.027023889 0.035500035 0.0069903778
0.029032642 0.035500038 0.0069915364
0.031053083 0.035500038 0.0070026102
0.032927513 0.035500038 0.0070086238
0.034995578 0.035500038 0.0070028338
0.037052486 0.035500038 0.0070296233
0.038934518 0.035500038 0.0070057097
0.040645752 0.035107777 0.0069255754
0.043028679 0.035500042 0.0070194337
0.044813562 0.035500038 0.007049032
0.04699542 0.035053551 0.0069827717
-0.047102593 -0.035111368 0.0089071393
-0.04496846 -0.035500038 0.0090381829
-0.042333432 -0.035464957 0.0088378815
-0.04103021 -0.035500042 0.0090296762
-0.039150026 -0.035500042 0.0090574715
-0.037024487 -0.035500042 0.0089480802
-0.034805015 -0.035300523 0.0088727986
-0.032996129 -0.035500038 0.0090536783
-0.030701606 -0.035500038 0.0089277867
-0.028882397 -0.035230633 0.008747167
-0.027124511 -0.035500038 0.0089507364
-0.024746694 -0.035497185 0.0089001367
-0.022684028 -0.035325576 0.0087668402
-0.020413382 -0.034926936 0.0087994142
-0.018984862 -0.035500038 0.0089946464
-0.017089399 -0.035500038 0.0089237373
-0.015012116 -0.035500038 0.0090544783
-0.013002479 -0.035500038 0.0089652427
-0.010752711 -0.035451945 0.0088790283
-0.0092417086 -0.035211369 0.0088258684
-0.0071742162 -0.035392698 0.0088759316
-0.0046976991 -0.035496686 0.0089261755
-0.0024578793 -0.035273392 0.0087621044
-0.0009527583 -0.035500038 0.0090265442
0.0010473294 -0.035500038 0.0090254918
0.0029492995 -0.035500038 0.0090018408
0.0050186324 -0.035500038 0.0089392886
0.0070437244 -0.035500038 0.0089184847
0.0090435212 -0.035500038 0.0089921858
0.010977107 -0.035500042 0.0090307724
0.013113327 -0.035386611 0.0089067584
0.014988545 -0.035169501 0.0088972384
0.017037341 -0.035500038 0.00896201
0.018889409 -0.035290074 0.0088677108
0.020916117 -0.035347484 0.0087825423
0.023105601 -0.035353065 0.0088860746
0.024735209 -0.03543378 0.0088388138
0.027019739 -0.035500038 0.0090427753
0.028972114 -0.035500038 0.0089970054
0.031042123 -0.035500038 0.0090137273
0.032985657 -0.035500038 0.0089214304
0.034842119 -0.035117138 0.0088495314
0.036609106 -0.035118319 0.0089443894
0.038989943 -0.035500038 0.0089551341
0.040534858 -0.035256609 0.00887415
0.043013908 -0.035500042 0.0089806542
0.044855524 -0.035391919 0.0088432897
0.047107041 -0.035129592 0.0090289284
-0.047406033 -0.033064768 0.0089766532
0.047008894 -0.032637686 0.0089591062
-0.047500014 -0.031024063 0.0089552244
0.047499966 -0.031013347 0.0089907702
-0.047500022 -0.029054757 0.0089996411
0.047499996 -0.029010352 0.0089984052
-0.047436941 -0.026664812 0.0089845462
0.047121283 -0.026651423 0.0089241648
-0.047453113 -0.025020311 0.0090205856
0.047122676 -0.024828995 0.0088791996
-0.047499992 -0.022973474 0.0089833923
0.047499977 -0.023024969 0.0089680403
-0.047499981 -0.021008119 0.0089808889
0.047499962 -0.020998469 0.0090520754
-0.047359385 -0.018933769 0.0088966899
0.047499973 -0.018981073 0.009006205
-0.047499966 -0.017023651 0.008997106
0.047122952 -0.016966525 0.0088934386
-0.047060989 -0.014980746 0.0089231832
0.047499996 -0.01503982 0.009068409
-0.04749997 -0.013031624 0.0090102479
0.047106512 -0.012859392 0.0088783409
-0.047499992 -0.011013996 0.0090158284
0.047275379 -0.010942205 0.0088674705
-0.04750004 -0.0089733182 0.0090013705
0.047499999 -0.0090269716 0.0090027303
-0.047216546 -0.0069040465 0.0088796699
0.047366802 -0.0069590821 0.0089367134
-0.047499988 -0.0049923398 0.0090188673
0.04750004 -0.0050118938 0.0089991083
-0.047499966 -0.003057132 0.0089230444
0.047237791 -0.0031063587 0.0089086825
-0.047499958 -0.00095647521 0.0090251835
0.047499992 -0.000983209 0.0090256315
-0.047488734 0.00093812536 0.0088806236
0.047500018 0.00099983928 0.0089910515
-0.047499985 0.0028214885 0.0089691468
0.047499999 0.0030125128 0.0089656729
-0.047499981 0.0049565122 0.008905285
0.04750004 0.0050369711 0.0090087689
-0.047499966 0.0069317697 0.0090706525
0.047229331 0.0068279854 0.0088529112
-0.047499988 0.0089123286 0.0089643141
0.047499981 0.008975178 0.0089911753
-0.047499996 0.011035521 0.0090131909
0.047332618 0.010701281 0.0087874876
-0.046619788 0.013176925 0.0088567063
0.047499988 0.012985307 0.008996062
-0.047500033 0.015011804 0.0090672476
0.047500022 0.015063607 0.0090610627
-0.047499966 0.017055809 0.0089990227
0.046766419 0.01696635 0.0087948292
-0.047499999 0.019046357 0.0090242196
0.047349893 0.019031961 0.0089038033
-0.046960257 0.020994823 0.0089020878
0.047500003 0.021044182 0.0089465547
-0.047055304 0.022525281 0.0087823058
0.046894018 0.023009403 0.0087063499
-0.047500025 0.025026929 0.0090197576
0.047499973 0.025002347 0.0089745605
-0.046898592 0.02646629 0.0088060759
0.047499985 0.026966047 0.0090579167
-0.047193363 0.029003255 0.0088865189
0.047500029 0.028940521 0.0089862803
-0.047499999 0.031042011 0.0089701442
0.047500018 0.030920036 0.0090086628
-0.047364097 0.032931309 0.0088839177
0.047023483 0.032624122 0.0088988114
-0.046911761 0.034921709 0.0088690892
-0.044911206 0.035500038 0.0090412917
-0.04230741 0.035471682 0.0088826045
-0.041033428 0.035225578 0.0090127029
-0.038947619 0.035500038 0.0089945616
-0.036712993 0.035419412 0.0089320149
-0.035044912 0.035374176 0.0088994484
-0.03282515 0.035162047 0.0088825887
-0.031035123 0.035500038 0.0089709889
-0.028856611 0.035500038 0.008975233
-0.02699242 0.035500038 0.009008185
-0.024972456 0.035145041 0.0089401761
-0.02299707 0.035500038 0.0090675652
-0.021127241 0.035245512 0.0089165634
-0.018964266 0.035500042 0.0089936154
-0.017003709 0.035500038 0.008994122
-0.014998652 0.035500038 0.0090575442
-0.012809318 0.035271488 0.0087982621
-0.011022052 0.035500038 0.0090184947
-0.0089773517 0.035500038 0.0090195043
-0.0072379699 0.035343252 0.0089606727
-0.0049900808 0.035500038 0.0089197131
-0.0027808782 0.035404291 0.0089324117
-0.00091337197 0.035500038 0.0090539129
0.001010276 0.035500038 0.0089654457
0.0030485769 0.035500038 0.0090027424
0.004846462 0.035146806 0.0089375461
0.0069267047 0.035500042 0.0090258494
0.0089926515 0.035500038 0.0088705523
0.011018495 0.035500042 0.009025529
0.013053813 0.035186764 0.0089079365
0.014993933 0.035296328 0.0088476967
0.017003803 0.035500042 0.0090606827
0.018720793 0.03545811 0.0089362534
0.021030977 0.035500038 0.0089835804
0.023047399 0.035500042 0.0089293662
0.024933463 0.035148554 0.0089852558
0.027070068 0.035500038 0.0090684677
0.028989889 0.035500038 0.0089975633
0.030884955 0.035429608 0.0088775167
0.032983862 0.035500038 0.0090166116
0.034970604 0.035500038 0.0090415571
0.036971614 0.035500038 0.0090258075
0.038655579 0.035163734 0.0089271069
0.041029193 0.034756262 0.0089396993
0.04282137 0.035429016 0.0087957261
0.044528417 0.035297494 0.0088864109
0.047031008 0.035105523 0.0089604193
-0.04662744 -0.034637645 0.01064031
-0.044749878 -0.03483551 0.010736661
-0.042991754 -0.035044007 0.010795742
-0.040599708 -0.034832865 0.010618433
-0.038721286 -0.034757588 0.010756456
-0.036986016 -0.034355685 0.010709825
-0.034584537 -0.034744635 0.010680708
-0.032633547 -0.035051275 0.010741571
-0.03099902 -0.035018496 0.010824012
-0.028942831 -0.035054639 0.01080077
-0.026954301 -0.035011809 0.010822969
-0.024954913 -0.035080057 0.010788168
-0.023017945 -0.035063535 0.010783457
-0.020948665 -0.035042193 0.01084882
-0.018940439 -0.034936931 0.010686701
-0.0170391 -0.0350761 0.010780937
-0.015170619 -0.034829549 0.01067588
-0.012998976 -0.03506919 0.01078269
-0.011010953 -0.035024088 0.01079028
-0.008944924 -0.034825001 0.01076264
-0.0070532784 -0.034827143 0.010703653
-0.0050102747 -0.034792215 0.010681019
-0.0029149228 -0.034724038 0.010619898
-0.00097824761 -0.035067085 0.010790048
0.00095803919 -0.035040967 0.010834006
0.0028660505 -0.034903552 0.010739874
0.0050003007 -0.03504511 0.01079438
0.0070322617 -0.035006531 0.010804601
0.0090377657 -0.035070155 0.010772942
0.010989178 -0.035079077 0.010830457
0.013010233 -0.03500931 0.010829931
0.01478291 -0.034762081 0.010655763
0.016656192 -0.034775216 0.010610034
0.01895001 -0.035019889 0.010817758
0.020875324 -0.034729935 0.010755233
0.022702523 -0.034957714 0.010800308
0.024976404 -0.035030521 0.010810029
0.026836002 -0.034798577 0.010580421
0.028574791 -0.0348473 0.01062657
0.030939348 -0.034997333 0.010814116
0.033019975 -0.035072193 0.010792905
0.034759089 -0.035035338 0.010685752
0.037011366 -0.035027731 0.010812463
0.038844191 -0.034959618 0.010732922
0.040995091 -0.034890842 0.010773385
0.04261905 -0.0348018 0.010667712
0.044980913 -0.035066634 0.010798485
0.046927478 -0.034779117 0.01058792
-0.047062911 -0.033037577 0.010774753
-0.044927388 -0.032707352 0.010884222
-0.042666633 -0.032910693 0.010881733
-0.040998627 -0.033073038 0.011000011
-0.039012685 -0.033081915 0.011000007
-0.037023168 -0.032959078 0.011000009
-0.035025414 -0.032909743 0.011000011
-0.033009801 -0.032971706 0.011000007
-0.030975292 -0.033023179 0.011000009
-0.028981354 -0.033013608 0.011000013
-0.027012285 -0.032956369 0.011000006
-0.025020737 -0.032967333 0.010999996
-0.022885803 -0.032595534 0.010870673
-0.021022193 -0.032646418 0.010944394
-0.018757576 -0.032789875 0.010793429
-0.01696533 -0.033014439 0.011000013
-0.015033357 -0.032961071 0.011000006
-0.012906574 -0.032710046 0.010972965
-0.010678942 -0.032933101 0.010896333
-0.0090465154 -0.032958865 0.010999997
-0.0068123462 -0.032921411 0.010870601
-0.0048337793 -0.032875784 0.010894738
-0.0030065477 -0.033009645 0.011000007
-0.0010321068 -0.033009503 0.011000009
0.0011125809 -0.032939218 0.01088299
0.0030219983 -0.032963693 0.011000004
0.0050481483 -0.03306229 0.010999997
0.0071999826 -0.032759145 0.010950021
0.0090172496 -0.033048328 0.011000006
0.010752702 -0.032886647 0.010928899
0.012704349 -0.032827377 0.010895737
0.015016566 -0.032967478 0.011000003
0.016739482 -0.032530788 0.010763377
0.019011952 -0.03298175 0.010998144
0.02095045 -0.032874454 0.010873576
0.023210615 -0.032495957 0.010877514
0.025073119 -0.032999393 0.011000001
0.026762925 -0.032356519 0.010820028
0.028870244 -0.032967832 0.010913547
0.031037271 -0.033005901 0.011000004
0.033045329 -0.033011284 0.011000007
0.034872759 -0.032864999 0.010893207
0.036971092 -0.032900505 0.011000011
0.038938615 -0.032917984 0.011000005
0.040479522 -0.032478131 0.010841711
0.043017164 -0.033012852 0.011000007
0.044498622 -0.032813422 0.010883609
0.046844896 -0.033027731 0.010697926
-0.046687137 -0.030928705 0.010711337
-0.044669691 -0.03089942 0.010868276
-0.042813402 -0.030726176 0.010888332
-0.041021816 -0.030982569 0.011000014
-0.038930111 -0.030985784 0.010948735
-0.036908902 -0.031020716 0.011000004
-0.035016824 -0.030940617 0.010999997
-0.032645561 -0.030706732 0.010882643
-0.030586394 -0.030192459 0.010540081
-0.028600406 -0.030979799 0.010958863
-0.026923601 -0.030965529 0.011000011
-0.025050573 -0.031019794 0.011000006
-0.022996848 -0.031068662 0.011000014
-0.021072309 -0.031082947 0.010929816
-0.018913791 -0.030657794 0.010758256
-0.017024068 -0.030945569 0.011000007
-0.014997046 -0.031106079 0.011000011
-0.012945728 -0.030984411 0.010999999
-0.011017737 -0.030953612 0.011000004
-0.0084376121 -0.030951019 0.010758256
-0.0069524376 -0.030979343 0.011000014
-0.0050079809 -0.030971702 0.011000007
-0.003197473 -0.031036396 0.010874298
-0.0013040389 -0.030933741 0.010914904
0.0010325795 -0.031015798 0.011000006
0.0030000354 -0.030990636 0.011000009
0.0049712635 -0.031113306 0.011000009
0.0068425685 -0.031012181 0.010999336
0.0090239411 -0.030954801 0.01100001
0.010824776 -0.030919673 0.01088299
0.012778901 -0.030986421 0.010867656
0.014986 -0.030996017 0.011000006
0.017059702 -0.030979253 0.011000006
0.018687466 -0.030725092 0.010877108
0.020974826 -0.031023435 0.011000006
0.023076115 -0.031089013 0.010914288
0.025041213 -0.030837921 0.010979139
0.026964493 -0.031030187 0.011000014
0.028932974 -0.031034453 0.011000013
0.03093146 -0.030976415 0.011000007
0.033067893 -0.030938877 0.011000006
0.034950987 -0.030936847 0.011000007
0.037020434 -0.031005012 0.011000013
0.038755156 -0.03077108 0.010885427
0.040667869 -0.031048853 0.010884827
0.042698372 -0.030762846 0.010860718
0.044321716 -0.030776186 0.010839229
0.047094509 -0.030946717 0.010751291
-0.046503037 -0.028836884 0.01057167
-0.044986717 -0.029048555 0.011000004
-0.04252388 -0.028933574 0.01082847
-0.040999472 -0.028988825 0.011000013
-0.038169838 -0.028712507 0.010770844
-0.03689732 -0.029020289 0.010927012
-0.035108965 -0.029001201 0.011000007
-0.032912888 -0.029132757 0.010931063
-0.031031769 -0.028996581 0.011000008
-0.02881813 -0.02891246 0.010875014
-0.027011674 -0.02876644 0.010767207
-0.024084192 -0.028174579 0.010756047
-0.022997871 -0.029020131 0.011000006
-0.021006567 -0.028995125 0.011000014
-0.01912551 -0.028698128 0.010893391
-0.016808514 -0.028930681 0.010878467
-0.014872043 -0.029039362 0.010873827
-0.013059852 -0.028811863 0.010884222
-0.011034616 -0.029031629 0.011000003
-0.0083389506 -0.028293433 0.010835
-0.0072410125 -0.028837312 0.010911345
-0.0050675715 -0.028878 0.010894233
-0.0032404517 -0.029081192 0.011000013
-0.0011029354 -0.028967181 0.011000013
0.00083575555 -0.028996492 0.010774293
0.0029752539 -0.028999686 0.011000003
0.0047999988 -0.028868826 0.010820976
0.006969695 -0.028992506 0.011000005
0.0090044821 -0.029030854 0.011
0.010666613 -0.02874396 0.010876356
0.013037465 -0.029022161 0.011000013
0.014831991 -0.028788693 0.010877108
0.016732374 -0.028889377 0.010824521
0.019028205 -0.028698433 0.010952113
0.021066343 -0.028995654 0.011000005
0.022734923 -0.029047439 0.0109448
0.024615264 -0.028899759 0.010958913
0.026948547 -0.028963251 0.011000011
0.029018035 -0.02899003 0.011000003
0.031022508 -0.028946931 0.011000007
0.032826282 -0.02873875 0.01087572
0.035014994 -0.028961483 0.011000014
0.037030164 -0.029086292 0.011000007
0.038950581 -0.029079199 0.011000004
0.04039903 -0.029082879 0.010961028
0.042510845 -0.028944314 0.010945161
0.04490263 -0.028610447 0.010970116
0.046140917 -0.028644148 0.010659439
-0.046949815 -0.026775686 0.010764617
-0.045003194 -0.027051983 0.011000014
-0.042967889 -0.026971968 0.011000004
-0.040996678 -0.026948454 0.011000004
-0.039020699 -0.026952665 0.011000006
-0.037091352 -0.026982285 0.011000011
-0.034778506 -0.027023036 0.010905951
-0.032815296 -0.027113708 0.010827801
-0.030686997 -0.026854062 0.010874298
-0.0288732 -0.027028399 0.011000001
-0.026938338 -0.027038483 0.010999993
-0.024217809 -0.025925359 0.010803461
-0.02268873 -0.02701788 0.010910303
-0.020566225 -0.026595181 0.010762176
-0.018804261 -0.026837416 0.010888332
-0.017023744 -0.02703152 0.011000006
-0.014780739 -0.026998213 0.01094946
-0.012966738 -0.027015517 0.011000004
-0.010911444 -0.026951054 0.011000006
-0.0091661168 -0.027037511 0.010978268
-0.0070017604 -0.026986433 0.01100001
-0.0050417781 -0.027024455 0.010999999
-0.0032542865 -0.026842054 0.010927434
-0.00075768778 -0.026685594 0.010978095
0.0010365385 -0.027043562 0.011000013
0.0030458963 -0.026992731 0.011000009
0.0047534811 -0.026818138 0.010883609
0.0070483861 -0.027016353 0.011000004
0.0090030488 -0.026927557 0.010887188
0.010953507 -0.02700885 0.011000004
0.012964861 -0.027008088 0.011000012
0.014893954 -0.026688369 0.010953356
0.016650794 -0.026605606 0.010870844
0.019005941 -0.027002431 0.01100001
0.020806072 -0.026781276 0.010792455
0.023013813 -0.026930768 0.011000008
0.025057754 -0.026752403 0.010915257
0.026976455 -0.026991965 0.011000011
0.028962204 -0.026838008 0.010896714
0.030658038 -0.026542604 0.01082423
0.032865334 -0.026422894 0.010796928
0.03458184 -0.026656047 0.010793296
0.037027285 -0.027006056 0.011000013
0.039010506 -0.026963349 0.011000007
0.040914044 -0.026834972 0.010883609
0.042946503 -0.0270044 0.011000013
0.043946013 -0.026918337 0.010649128
0.047067326 -0.02702559 0.010795002
-0.047072727 -0.02501783 0.010809021
-0.04505372 -0.025067773 0.011000005
-0.042387102 -0.024491811 0.01074965
-0.040656283 -0.025054444 0.010991197
-0.039039493 -0.025028739 0.011000006
-0.036979247 -0.024974704 0.01088299
-0.034953441 -0.025013862 0.011000002
-0.032857206 -0.024975639 0.010890553
-0.031114906 -0.025044037 0.011000006
-0.028741511 -0.025079714 0.010881094
-0.027042428 -0.025015216 0.011000012
-0.024975255 -0.02507283 0.010902654
-0.022981279 -0.024971869 0.011000015
-0.021100897 -0.025008222 0.011000002
-0.018993117 -0.024745479 0.010893207
-0.017090918 -0.025041617 0.01089163
-0.01516641 -0.024908146 0.010842538
-0.013026376 -0.024979955 0.011000006
-0.011082878 -0.024959357 0.010894738
-0.0085649788 -0.024772873 0.010887502
-0.0070418953 -0.024938812 0.011000005
-0.004929428 -0.024996642 0.01100001
-0.0029106587 -0.024944959 0.011000007
-0.00099490571 -0.024988703 0.011000011
0.0010407876 -0.025026385 0.011000014
0.0029746646 -0.025063792 0.011000013
0.0051277704 -0.02510757 0.010978625
0.0066925725 -0.024897965 0.010882146
0.0091700479 -0.024677059 0.010935899
0.010944776 -0.024880858 0.010887188
0.013007375 -0.025023865 0.010999997
0.015043727 -0.024939585 0.011000013
0.016657719 -0.02406081 0.010826892
0.018978341 -0.024978615 0.011000005
0.021049917 -0.024439722 0.010878928
0.023058537 -0.025077851 0.011000007
0.025020303 -0.024699453 0.010925832
0.027025873 -0.024989957 0.011000005
0.028889155 -0.024971113 0.011000007
0.031005306 -0.02499133 0.010999999
0.0330787 -0.025026666 0.011000013
0.03500523 -0.025010839 0.011000006
0.036994014 -0.024987713 0.011000015
0.038993157 -0.024941349 0.01100001
0.040584173 -0.024973853 0.010888332
0.042951453 -0.025029706 0.010999435
0.044916332 -0.025054604 0.011000006
0.046794519 -0.025005279 0.010705247
-0.04702254 -0.022971874 0.0107969
-0.045042194 -0.022989096 0.011000007
-0.04254289 -0.023004135 0.010957225
-0.041045569 -0.023032486 0.011000003
-0.038988195 -0.023066638 0.011000014
-0.036834575 -0.02288343 0.010837929
-0.034606967 -0.022748718 0.010887188
-0.032938704 -0.022926454 0.011000006
-0.030961083 -0.023112983 0.011000005
-0.028965691 -0.02298706 0.011000013
-0.026429979 -0.022877088 0.010817305
-0.025019981 -0.023040546 0.011000014
-0.023023313 -0.022929762 0.011000014
-0.021027846 -0.023061471 0.011000006
-0.018921014 -0.022917794 0.010886606
-0.017077761 -0.023106979 0.011000015
-0.015145297 -0.022954378 0.010931982
-0.01296617 -0.022980146 0.011000001
-0.01125155 -0.023035144 0.010943131
-0.0090836212 -0.022978036 0.011000001
-0.0069207381 -0.02295129 0.011000011
-0.0049730376 -0.022939861 0.010849986
-0.0030225019 -0.022956057 0.010890005
-0.0012803411 -0.023057023 0.010774368
0.0015276872 -0.022965923 0.010786866
0.0029485216 -0.023025794 0.011000009
0.0046003805 -0.023054661 0.010872105
0.0067710676 -0.022789067 0.01094645
0.0087791765 -0.022963898 0.010888332
0.011045139 -0.022777965 0.010873141
0.013092382 -0.023027621 0.011000013
0.015127402 -0.022942625 0.010893722
0.016801869 -0.022983965 0.010883609
0.018963065 -0.022933146 0.010890005
0.020731321 -0.022826409 0.010897185
0.022949005 -0.02302403 0.011000013
0.024672201 -0.022977713 0.010892486
0.02704324 -0.02296735 0.011000008
0.028905377 -0.022834323 0.010879135
0.030945782 -0.023029152 0.01100001
0.032683365 -0.022710714 0.010896102
0.034920547 -0.023061374 0.011000014
0.037002094 -0.023018911 0.011000006
0.03877816 -0.022642478 0.010965542
0.040995214 -0.022982001 0.011000008
0.043016035 -0.022970283 0.011000013
0.045041163 -0.022953307 0.01100001
0.047065735 -0.023040205 0.010800392
-0.046570916 -0.020549336 0.010668358
-0.044973128 -0.021010883 0.011000013
-0.042903885 -0.021054516 0.010979602
-0.040598385 -0.020806547 0.010881094
-0.038474713 -0.020898266 0.010786412
-0.036933754 -0.021022821 0.011000006
-0.035081629 -0.0209902 0.011000011
-0.033059817 -0.021032155 0.011000006
-0.031027462 -0.021013182 0.010966671
-0.028770829 -0.021033982 0.010762176
-0.027065689 -0.020976616 0.011000015
-0.024817076 -0.021061929 0.011000004
-0.022990439 -0.021034917 0.011000011
-0.020944918 -0.021007866 0.011000011
-0.019025672 -0.020967942 0.011000013
-0.017025411 -0.021044303 0.011000013
-0.015118768 -0.020818196 0.01096841
-0.0130399 -0.020997114 0.011000005
-0.01103254 -0.021039724 0.011000007
-0.0090616122 -0.020689659 0.010882076
-0.0069485195 -0.020459807 0.010647072
-0.0046141604 -0.020551493 0.010880479
-0.003197283 -0.020845916 0.01079683
-0.00093828997 -0.020871062 0.010863365
0.00084718823 -0.021031192 0.010999357
0.0028149323 -0.020970875 0.010879795
0.0052471128 -0.020724086 0.010948849
0.0069093392 -0.020961745 0.011000014
0.0092479791 -0.020935742 0.01091126
0.010960332 -0.020985534 0.011000004
0.012943907 -0.021031538 0.011000013
0.01476793 -0.021109968 0.010941625
0.017002065 -0.020950912 0.011000001
0.018712405 -0.020462357 0.010837016
0.020816486 -0.020875463 0.010898616
0.023011137 -0.021043533 0.010990631
0.02472711 -0.020770162 0.010953943
0.026691271 -0.021013986 0.010946232
0.029004889 -0.020979296 0.011000006
0.031027529 -0.021034829 0.011000011
0.03293854 -0.020988295 0.010888332
0.035004519 -0.020998485 0.011000014
0.03649259 -0.021045757 0.010810604
0.038766347 -0.021070048 0.011000003
0.040606599 -0.021068892 0.010785234
0.042803526 -0.021081463 0.01094261
0.044613998 -0.021051079 0.010999057
0.046652369 -0.020805916 0.010723204
-0.047066316 -0.018969383 0.010719399
-0.04432179 -0.018822053 0.010773524
-0.043043368 -0.019080756 0.011000007
-0.04027877 -0.018375514 0.01071553
-0.039047901 -0.019065874 0.011000002
-0.036182132 -0.018952299 0.010882781
-0.034704104 -0.018961402 0.01088299
-0.032831959 -0.018994939 0.01092539
-0.030817505 -0.018956443 0.010883609
-0.028975142 -0.018806117 0.010878467
-0.026898725 -0.019000998 0.010893207
-0.025074007 -0.01865894 0.010905929
-0.022672355 -0.01883531 0.010777785
-0.020768607 -0.018939627 0.010880449
-0.018894879 -0.019157117 0.010954808
-0.01703074 -0.018979462 0.011
-0.014795688 -0.018825782 0.010886606
-0.013023134 -0.019030254 0.011000007
-0.011029675 -0.019003324 0.010999401
-0.0090325354 -0.019018922 0.010999999
-0.0069818394 -0.01898228 0.010999998
-0.0049796505 -0.018955221 0.011000005
-0.0023352609 -0.018511921 0.010613206
-0.0010468764 -0.019047659 0.01100001
0.00091258989 -0.019034987 0.011000006
0.0030542533 -0.018953066 0.01100001
0.005057924 -0.018974587 0.010999999
0.0066954861 -0.01872991 0.010889919
0.0089875981 -0.0188348 0.01086906
0.010948788 -0.019035146 0.01100001
0.012626589 -0.019124083 0.010978763
0.014511441 -0.019125117 0.010977809
0.016909169 -0.018855173 0.010889454
0.019093411 -0.019114891 0.010928822
0.020969111 -0.019019799 0.011000012
0.023044799 -0.019038649 0.011000004
0.025018198 -0.018973995 0.011000006
0.026356813 -0.018811552 0.010775396
0.0290913 -0.01898203 0.010894233
0.030990902 -0.018998085 0.011000013
0.032883264 -0.018802393 0.010883609
0.034621757 -0.019027146 0.010998765
0.03698878 -0.019028196 0.011000014
0.038702898 -0.019033775 0.010893378
0.040979415 -0.01895852 0.011000013
0.042547002 -0.018737579 0.010912004
0.045064788 -0.019014137 0.011000008
0.046975818 -0.018853331 0.010678583
-0.046492029 -0.016790416 0.010703133
-0.044605583 -0.016993999 0.010934118
-0.043002646 -0.017034823 0.01100001
-0.041005701 -0.016932625 0.010999995
-0.038972888 -0.017059777 0.011000005
-0.037036259 -0.016688481 0.010977057
-0.03458146 -0.016875442 0.010892161
-0.032661434 -0.016486958 0.010854892
-0.031014705 -0.016974328 0.011000006
-0.029023053 -0.016970115 0.011000008
-0.026884928 -0.016776053 0.010886019
-0.025083205 -0.016854784 0.010877108
-0.022898538 -0.016959552 0.010879795
-0.020710686 -0.016937373 0.010915596
-0.018931191 -0.016776141 0.010980081
-0.017140312 -0.017005382 0.010932626
-0.014782458 -0.017182944 0.01088315
-0.012953648 -0.017054819 0.010969122
-0.011007879 -0.016971588 0.011000013
-0.0090390239 -0.017137047 0.010989206
-0.0070138839 -0.017055361 0.01100001
-0.005243782 -0.016929651 0.010934867
-0.0030307479 -0.017046405 0.01100001
-0.00072707265 -0.016476527 0.010839071
0.00078454346 -0.016783278 0.010880449
0.0031677156 -0.016758922 0.010968395
0.0049930704 -0.016930766 0.011000013
0.0065980861 -0.016742585 0.010675372
0.0089452891 -0.016936449 0.010999992
0.010921207 -0.016972117 0.011000011
0.013059146 -0.016912108 0.010893722
0.015124798 -0.016778007 0.010873576
0.0168208 -0.017066063 0.010999734
0.019083865 -0.01701463 0.011000014
0.020966033 -0.016948137 0.011000003
0.022730924 -0.017044878 0.010997924
0.024840185 -0.016771594 0.010990104
0.027042611 -0.016977636 0.011000011
0.028751444 -0.016979389 0.01088299
0.030806515 -0.017104095 0.010784319
0.033004604 -0.017042255 0.011000005
0.034457203 -0.016617585 0.010767674
0.036991142 -0.016968774 0.011000006
0.038627822 -0.017060209 0.010971395
0.041052788 -0.017017946 0.011000007
0.042950489 -0.016979109 0.011000002
0.04498741 -0.017029084 0.011000014
0.047007937 -0.017000614 0.010826471
-0.04682634 -0.014971741 0.010800339
-0.045052763 -0.014939927 0.011000013
-0.042597253 -0.014973425 0.010872845
-0.040886834 -0.0148855 0.010878467
-0.039059013 -0.015003013 0.010977915
-0.03687704 -0.014973304 0.010872845
-0.034989066 -0.014954274 0.011000007
-0.032655604 -0.015028113 0.010874979
-0.030988483 -0.015052796 0.011000015
-0.028839687 -0.015174743 0.01097766
-0.026835177 -0.014846103 0.010959975
-0.024708072 -0.014778645 0.010896714
-0.022547867 -0.014576044 0.010848985
-0.020996565 -0.014997439 0.011000011
-0.01902975 -0.015063261 0.011000006
-0.017199511 -0.014695695 0.010890703
-0.01484508 -0.014875107 0.010862152
-0.012777327 -0.014787905 0.010877108
-0.010844032 -0.014614296 0.010788428
-0.0086225402 -0.014861939 0.010938085
-0.0070002275 -0.01499315 0.01100001
-0.004980939 -0.015018079 0.011000006
-0.0031459578 -0.015053676 0.010880449
-0.001166374 -0.015064816 0.010929734
0.00098436931 -0.01490108 0.01100001
0.0030644967 -0.015082065 0.010896268
0.0050210375 -0.014961226 0.011000001
0.0068746423 -0.014532368 0.010839659
0.0085859625 -0.015054468 0.010861986
0.010841123 -0.014941806 0.010884222
0.013159451 -0.014757304 0.010879962
0.014980676 -0.014971203 0.011000013
0.017106066 -0.014714288 0.010966529
0.019166859 -0.014798784 0.010891873
0.021104977 -0.015175805 0.010909803
0.022919618 -0.014996501 0.011000004
0.024957847 -0.015055481 0.010885427
0.026951786 -0.015108021 0.011000015
0.028935211 -0.015017021 0.01100001
0.030986281 -0.015013723 0.011000013
0.033017643 -0.015051481 0.011000006
0.034923375 -0.014981988 0.010999853
0.03698061 -0.014962004 0.011000013
0.038950544 -0.014953947 0.010827184
0.0407901 -0.015122431 0.010891094
0.04297496 -0.014942798 0.011000014
0.045011196 -0.015061088 0.011000003
0.04682257 -0.014911679 0.010703328
-0.047002289 -0.013017816 0.010829236
-0.045022119 -0.013002484 0.011000008
-0.042983659 -0.013016554 0.011000004
-0.040968712 -0.013015961 0.011000006
-0.038810845 -0.012836689 0.010678054
-0.036988426 -0.012978848 0.011000007
-0.034632161 -0.012954369 0.010989428
-0.032999098 -0.012961728 0.011000011
-0.030969631 -0.012976163 0.011000014
-0.028255109 -0.012643676 0.010831679
-0.026708361 -0.012793981 0.010872105
-0.025027493 -0.012989868 0.011000014
-0.022925004 -0.012948031 0.011000011
-0.02089181 -0.013133806 0.010989198
-0.018966701 -0.012529191 0.010846396
-0.016793827 -0.012711383 0.01097617
-0.015083033 -0.013173641 0.010925848
-0.01311361 -0.012842204 0.010901553
-0.011088882 -0.01299327 0.011000002
-0.0089691589 -0.012946489 0.011000003
-0.0069916947 -0.013023414 0.01100001
-0.004985529 -0.012989362 0.011000001
-0.0031996015 -0.012933942 0.010888332
-0.00086566817 -0.012853762 0.010886019
0.00088532874 -0.013049135 0.011000007
0.0030569236 -0.012913355 0.011000014
0.0052440437 -0.012766327 0.010979834
0.0069820476 -0.012992449 0.011000003
0.008982311 -0.012983465 0.011000011
0.010966228 -0.013046752 0.011000001
0.01300534 -0.013005286 0.011000007
0.015015382 -0.013034038 0.01100001
0.017127916 -0.012767507 0.010961603
0.019086007 -0.01305055 0.010823847
0.020575164 -0.013132727 0.010902723
0.022502933 -0.012951945 0.010853429
0.025014605 -0.012943095 0.011000013
0.027039113 -0.012973402 0.011
0.028714819 -0.012751354 0.010787263
0.030575659 -0.012855629 0.010989156
0.03306932 -0.012966204 0.011000006
0.034990843 -0.012902508 0.010888332
0.036950093 -0.013104488 0.010892161
0.038529176 -0.012733128 0.010798206
0.040755212 -0.013065881 0.010999837
0.042977229 -0.013024213 0.011000013
0.044934552 -0.01297322 0.011000002
0.046241768 -0.012774274 0.010577608
-0.047086965 -0.011008849 0.010796246
-0.044823039 -0.011127029 0.01099022
-0.04296932 -0.01095274 0.011000011
-0.040987615 -0.010963571 0.011000006
-0.038260553 -0.011079897 0.010763154
-0.036766123 -0.010820759 0.010883609
-0.035093095 -0.010987043 0.011000012
-0.032414716 -0.010796917 0.010739657
-0.031057283 -0.011022432 0.011
-0.029012691 -0.010947856 0.010999998
-0.026812831 -0.011239636 0.010926205
-0.02502971 -0.011193107 0.010920069
-0.02238957 -0.010854968 0.010887763
-0.020977369 -0.0110012 0.011000003
-0.019020904 -0.010949847 0.011000011
-0.016979096 -0.010396054 0.010623872
-0.014646811 -0.010959717 0.01086627
-0.012716698 -0.011053127 0.01100001
-0.011026002 -0.011082172 0.011000009
-0.0089073339 -0.010997755 0.011000007
-0.007202717 -0.010870416 0.010966117
-0.0046908213 -0.010836345 0.010989743
-0.0030117347 -0.011083729 0.011000009
-0.00101141 -0.011010676 0.010999997
0.0010264913 -0.010972749 0.011000013
0.0030005653 -0.010992309 0.011000013
0.0049952553 -0.011010806 0.011000005
0.0070517673 -0.011078322 0.011000014
0.0090280082 -0.011062277 0.010895737
0.011266264 -0.011067558 0.01084777
0.013025876 -0.010705937 0.010900923
0.014968709 -0.010978146 0.011000001
0.016883917 -0.01098804 0.010880449
0.018949814 -0.01100166 0.010868281
0.020973092 -0.011000211 0.011000011
0.022661099 -0.010496259 0.010860573
0.02492944 -0.011041447 0.010883609
0.026969908 -0.011005576 0.011000009
0.029071284 -0.010963171 0.01100001
0.030975187 -0.01110973 0.010897574
0.032531023 -0.010815158 0.010955125
0.034978632 -0.011001612 0.010999999
0.036894422 -0.011078503 0.010999746
0.038563199 -0.010904957 0.010885506
0.040393203 -0.010771343 0.010937938
0.042927351 -0.0109967 0.011000005
0.044872131 -0.01078818 0.010988883
0.045905877 -0.011003791 0.010691246
-0.046850123 -0.0091484534 0.010736294
-0.045001626 -0.008956058 0.011000014
-0.043065153 -0.008891019 0.010989296
-0.04101757 -0.0089646569 0.011000004
-0.038906556 -0.008997797 0.011000004
-0.037045997 -0.0090928664 0.010932167
-0.0346286 -0.0089430856 0.010893722
-0.032756295 -0.0091426643 0.010945701
-0.030702895 -0.009073725 0.010889454
-0.029015349 -0.009189141 0.010777567
-0.026803851 -0.0087156817 0.010936202
-0.025077578 -0.0091559254 0.010837951
-0.022985555 -0.0089816302 0.011000005
-0.021060303 -0.0090071186 0.011000014
-0.019072089 -0.0087623522 0.010990406
-0.017009513 -0.0089771226 0.011000014
-0.014980612 -0.0090293223 0.011000004
-0.013041525 -0.0090204645 0.011000009
-0.010983748 -0.0090176733 0.011000008
-0.008977565 -0.009000334 0.011000008
-0.0073900274 -0.008924678 0.010849306
-0.0050068339 -0.0089877611 0.01100001
-0.0029771989 -0.008920582 0.011000009
-0.0009449122 -0.0089589953 0.011000004
0.0013182799 -0.0088722007 0.010726718
0.0029135509 -0.0091088573 0.010908484
0.0053724926 -0.0090567656 0.010886188
0.0069934763 -0.0090162363 0.011000009
0.0089830011 -0.0089878896 0.011000009
0.01095779 -0.009114515 0.010887763
0.013141151 -0.0088285264 0.010774368
0.014932554 -0.0089002484 0.010751647
0.016711593 -0.0088977804 0.010893722
0.018206492 -0.0089650452 0.010796025
0.020996256 -0.0090475343 0.01100001
0.02284389 -0.0091542434 0.011000013
0.025113042 -0.009080031 0.010952332
0.026864639 -0.0087895477 0.010882366
0.02899332 -0.0089844307 0.011000004
0.030772366 -0.0088736964 0.010878467
0.032615103 -0.0090716556 0.010867481
0.034953441 -0.0090612844 0.011000009
0.037032288 -0.0089431712 0.010999995
0.038953174 -0.0090041161 0.011000007
0.040682968 -0.009168433 0.011000014
0.042748824 -0.0089504356 0.010884222
0.044945553 -0.009115194 0.010948575
0.047075398 -0.0088355765 0.010759349
-0.046688385 -0.0070324079 0.010729182
-0.044972368 -0.0067276517 0.010969694
-0.042619515 -0.0070877196 0.010937607
-0.040308818 -0.0067900466 0.010843518
-0.039041888 -0.0069684586 0.011000007
-0.037051413 -0.0068734777 0.010816206
-0.034950346 -0.0070317397 0.01100001
-0.032845341 -0.0068915654 0.010886606
-0.03104162 -0.0070375064 0.011000004
-0.028797967 -0.007026487 0.010890553
-0.026921321 -0.0066356617 0.010756619
-0.024836855 -0.0068303333 0.010903659
-0.022418756 -0.0072828494 0.010963788
-0.021030363 -0.006981492 0.01100001
-0.018840145 -0.0071052182 0.010999695
-0.017048895 -0.006977228 0.011000006
-0.014998691 -0.0070012645 0.011000013
-0.013029412 -0.0070077493 0.011000005
-0.011058726 -0.0069764238 0.011000011
-0.0090214619 -0.0069373492 0.010892391
-0.0067458884 -0.0070583746 0.010968495
-0.0049086916 -0.0069794697 0.011000005
-0.0028598141 -0.0067789783 0.010935636
-0.00096483767 -0.0069572628 0.011000008
0.0010067972 -0.0070476341 0.010868276
0.0030098928 -0.0069915904 0.011000011
0.0049774298 -0.0068041948 0.010654463
0.0069887158 -0.0069994763 0.011000014
0.0089909965 -0.0070004188 0.01086702
0.011088862 -0.0069264728 0.01087572
0.013020955 -0.0068307393 0.010878467
0.014998094 -0.0069101229 0.010877792
0.016634731 -0.0070104185 0.010888684
0.018655227 -0.0070339674 0.010877792
0.02104127 -0.0069921771 0.011000009
0.022934735 -0.0067784605 0.010898063
0.025025576 -0.0070475782 0.011000014
0.026975643 -0.0069050775 0.01100001
0.028669048 -0.0069323219 0.010826415
0.030984133 -0.0069798455 0.011000013
0.03299227 -0.0070342175 0.011000007
0.035008524 -0.0069796923 0.011
0.036970913 -0.0070306221 0.011000011
0.038647391 -0.0069492678 0.010880038
0.040788952 -0.007086148 0.010999332
0.042761832 -0.0071964716 0.010884827
0.044579212 -0.0065960777 0.010764719
0.047039397 -0.0069808662 0.010829166
