# .PCD v0.7 - Point Cloud Data file format
VERSION 0.7
FIELDS x y z
SIZE 4 4 4
TYPE F F F
COUNT 1 1 1
WIDTH 1264
HEIGHT 1
VIEWPOINT 0 0 0 1 0 0 0
POINTS 1264
DATA ascii
0.037047725 0.0029572654 -0.018500019
0.039049394 0.0030387174 -0.018500017
0.041034129 0.0029944535 -0.018500019
0.043015715 0.0030268037 -0.018500015
0.045022409 0.0029973395 -0.018436341
-0.044896062 0.0050681615 -0.018444093
-0.042960335 0.0049528065 -0.018500019
-0.040977359 0.004942344 -0.018500021
-0.039042868 0.0050057755 -0.018500011
-0.036978882 0.0050662942 -0.018500004
-0.035005491 0.0049488409 -0.018500026
-0.033021081 0.0050871298 -0.018500015
-0.031017333 0.0049747578 -0.018500023
-0.029008508 0.0049836216 -0.018500024
-0.026979961 0.0049723852 -0.018500023
-0.024933588 0.005011118 -0.018500021
-0.022952119 0.0049984283 -0.018500021
-0.020947801 0.0049791629 -0.018500024
-0.018996397 0.004946305 -0.018500019
-0.016990928 0.0050014742 -0.018500015
-0.014952119 0.005023458 -0.018500021
-0.013011619 0.0049363994 -0.018500017
-0.011301596 0.0045418357 -0.018499276
-0.0089797089 0.004968157 -0.018500026
-0.0070082205 0.0050207563 -0.018500021
-0.0049970932 0.004991164 -0.018500017
-0.0030099407 0.0049792849 -0.018500024
-0.0010328192 0.0049904357 -0.018500021
0.001007875 0.0050434838 -0.018500026
0.0029823212 0.005081547 -0.018500015
0.0049709682 0.0050479383 -0.018500015
0.0069567887 0.0050256751 -0.018500024
0.0089884168 0.0050546979 -0.018500019
0.010895609 0.0048748804 -0.018500019
0.013218251 0.0049015619 -0.018499685
0.015018875 0.0048981658 -0.018500015
0.01693913 0.0050379802 -0.018500013
0.018964263 0.0047939103 -0.018500017
0.021023314 0.0049885879 -0.018500021
0.023093924 0.004938608 -0.018500019
0.025051797 0.0050650584 -0.018500017
0.026961287 0.0049760398 -0.018500013
0.029023467 0.0050188494 -0.018500017
0.031042935 0.0050358046 -0.018500011
0.033004187 0.0050013755 -0.018500019
0.034684233 0.0049244063 -0.018500015
0.036448572 0.0047381092 -0.018500023
0.038967241 0.0049452842 -0.018500019
0.040905807 0.004992601 -0.018500015
0.043017097 0.0050374973 -0.018500021
0.044908565 0.0049327677 -0.018432608
-0.044942558 0.0069760657 -0.018442875
-0.042965084 0.0070466842 -0.01850003
-0.041037675 0.0069298642 -0.018500026
-0.039047211 0.0069826236 -0.018500023
-0.036670253 0.0068796584 -0.018500026
-0.034990024 0.0069638765 -0.018500013
-0.033029437 0.0070104282 -0.018500015
-0.031041037 0.0071051097 -0.018500015
-0.028983168 0.007065949 -0.018500021
-0.027011704 0.007013794 -0.01850001
-0.025072612 0.0070318864 -0.018500019
-0.022999335 0.0070380447 -0.018500013
-0.020962834 0.0070193131 -0.018500015
-0.019013993 0.0070077679 -0.018500019
-0.016980832 0.0070710871 -0.018500024
-0.014950171 0.0069306297 -0.018500013
-0.013018874 0.0070135323 -0.018500019
-0.010929359 0.0069479616 -0.018500023
-0.0087010628 0.0069646728 -0.018500011
-0.0070158639 0.007024298 -0.018500008
-0.0050301976 0.0070059155 -0.018500019
-0.0029311066 0.0070472634 -0.018500019
-0.0010189943 0.0070487689 -0.01850001
0.0010363766 0.0069156522 -0.018500021
0.0029861752 0.0070602656 -0.018500019
0.0049658879 0.0070456611 -0.018500006
0.006969369 0.0070227678 -0.018500017
0.009015915 0.0070516164 -0.018500013
0.011027524 0.0069787013 -0.018500013
0.012997744 0.0069888681 -0.01850003
0.014983159 0.0070722187 -0.018500024
0.0170012 0.0070049032 -0.018500023
0.019043004 0.007007401 -0.018500021
0.020973444 0.0069890874 -0.018500011
0.02302769 0.0069431402 -0.018500024
0.025005355 0.007029864 -0.018500021
0.026960811 0.0069759642 -0.018500021
0.029026721 0.0069134021 -0.018500013
0.03102296 0.0069804252 -0.018500021
0.033008531 0.0069978083 -0.018500024
0.034946151 0.0070053781 -0.018500015
0.036984231 0.0069690505 -0.018500019
0.03903525 0.0069474792 -0.018500015
0.040982004 0.0069143288 -0.018500023
0.043028269 0.0069480343 -0.01850001
0.044919766 0.0070643569 -0.018439798
-0.044958897 0.0090343338 -0.018434471
-0.042935219 0.0089987665 -0.018500019
-0.040971443 0.0090122549 -0.018500019
-0.038995445 0.0089758709 -0.01850001
-0.036952578 0.0089125512 -0.018500019
-0.035074174 0.0089881849 -0.01850001
-0.033013467 0.0090210075 -0.01850001
-0.031016938 0.0089848535 -0.018500026
-0.028840119 0.008836369 -0.018500013
-0.027044181 0.0089817904 -0.018500017
-0.024981583 0.0090436675 -0.018500024
-0.023049835 0.0090121627 -0.018500019
-0.020981088 0.0090042418 -0.018500015
-0.018994281 0.0090677571 -0.018500011
-0.017114729 0.0090445084 -0.018500004
-0.015060733 0.0088362964 -0.018500013
-0.013050146 0.0089924326 -0.018500019
-0.010780362 0.008932638 -0.018500026
-0.0090368688 0.008921057 -0.018500023
-0.0070487349 0.009021705 -0.018500026
-0.0049549798 0.0089437924 -0.018500021
-0.0029206048 0.0089683896 -0.01850001
-0.0010065803 0.0089789471 -0.018500015
0.0010308063 0.0090581737 -0.018500017
0.0030098166 0.0089915153 -0.018500015
0.0049944296 0.0090354644 -0.018500023
0.0069575636 0.008985688 -0.018500023
0.0090256538 0.0090130046 -0.018500015
0.010903437 0.0089893555 -0.018500021
0.01306248 0.0090253139 -0.018500024
0.014929492 0.0088589229 -0.018500017
0.016972886 0.0089239972 -0.018500015
0.019137822 0.0087977732 -0.018499134
0.02108244 0.008890369 -0.01850001
0.023008659 0.0089761904 -0.018500015
0.024983561 0.0090539651 -0.018500019
0.027063329 0.0089178607 -0.018500019
0.028912164 0.0089892484 -0.018500024
0.030859483 0.0088712471 -0.018500019
0.0329482 0.0090388311 -0.018500024
0.034971412 0.0090137878 -0.018500013
0.037122138 0.0089619271 -0.018500015
0.038643617 0.0089188721 -0.018500015
0.041004553 0.0088780923 -0.018500015
0.042931903 0.0089846347 -0.018500017
0.044920594 0.0089742253 -0.018434254
-0.045053497 0.010915617 -0.01843868
-0.042631064 0.010923346 -0.018500026
-0.041054592 0.010990283 -0.018500023
-0.038978834 0.011010653 -0.018500017
-0.037011564 0.010951743 -0.018500024
-0.034976088 0.010939984 -0.018500019
-0.033011973 0.010983188 -0.018500021
-0.030862167 0.010895719 -0.018500011
-0.028933395 0.010778546 -0.018500015
-0.026576277 0.010883177 -0.018500023
-0.025051763 0.011010728 -0.018500023
-0.023121759 0.011003035 -0.018500021
-0.021038458 0.010933214 -0.018500015
-0.019047739 0.011040616 -0.018500019
-0.017013997 0.010939055 -0.018500019
-0.014933358 0.010999573 -0.018500015
-0.012984402 0.010959464 -0.018500015
-0.011071409 0.011032688 -0.018500013
-0.0089407973 0.011025809 -0.018500019
-0.0070026433 0.011080245 -0.018500024
-0.0050557517 0.010980089 -0.018500021
-0.0029876193 0.011039002 -0.018500011
-0.00099301583 0.011048735 -0.018500024
0.00096358091 0.01099191 -0.018500019
0.0027711105 0.010865144 -0.018500019
0.0050197365 0.01105972 -0.018500023
0.0070052054 0.010993092 -0.018500024
0.0090175476 0.010968952 -0.018500015
0.011095248 0.0109694 -0.018500002
0.012946825 0.011051519 -0.018500013
0.014971048 0.010951942 -0.018500017
0.016862689 0.010894959 -0.018500028
0.018700249 0.010871268 -0.018500026
0.020970168 0.010983223 -0.018500019
0.022956165 0.010806915 -0.018500017
0.024931366 0.011006435 -0.018500015
0.0270236 0.011009873 -0.018500021
0.028602131 0.010976877 -0.018500017
0.030991303 0.011080228 -0.018500024
0.033054214 0.010991354 -0.018500021
0.034816276 0.010855416 -0.018500023
0.036989704 0.011006928 -0.018500026
0.038905319 0.011049795 -0.018500021
0.040998325 0.010991601 -0.018500015
0.043053031 0.011020456 -0.01850003
0.044867955 0.01102249 -0.018456554
-0.044966642 0.012974712 -0.01841663
-0.043001629 0.012991514 -0.018500024
-0.041051831 0.013036977 -0.018500017
-0.038565792 0.012515737 -0.018499132
-0.037021194 0.012976224 -0.018500017
-0.034983888 0.012945318 -0.018500026
-0.03264989 0.012884713 -0.018500013
-0.030902322 0.013064624 -0.018500013
-0.029026723 0.013059962 -0.018500021
-0.027069084 0.012896661 -0.018500013
-0.024617797 0.012769572 -0.018499205
-0.022979466 0.012981043 -0.018500021
-0.020997468 0.012976353 -0.018500017
-0.019073244 0.013042185 -0.018500013
-0.016987357 0.012960037 -0.018500017
-0.015088086 0.012992417 -0.018500017
-0.013046792 0.013052509 -0.018500023
-0.011000417 0.013067121 -0.018500023
-0.0090279263 0.012955895 -0.018500019
-0.0069829845 0.012991062 -0.018500026
-0.0047847284 0.012848795 -0.018500019
-0.0029487393 0.013062233 -0.018500011
-0.00097217958 0.012981822 -0.018500021
0.0010117195 0.013041011 -0.018500013
0.0030009861 0.013026538 -0.018500024
0.0049422383 0.013001828 -0.018500024
0.0071008285 0.012997099 -0.018500015
0.0089774365 0.012994193 -0.018500019
0.011060492 0.013023659 -0.018500015
0.012765815 0.012892823 -0.018500008
0.015004801 0.013050113 -0.018500017
0.017078476 0.012943178 -0.018500011
0.019024557 0.012865283 -0.018500015
0.020979663 0.01302357 -0.018500024
0.022982659 0.012981262 -0.018500015
0.024993759 0.012981731 -0.018500023
0.027002182 0.013012185 -0.018500019
0.028652623 0.012977796 -0.018500019
0.031002808 0.012929942 -0.018500021
0.032985356 0.012961375 -0.018500023
0.035042357 0.013046553 -0.018500023
0.036972113 0.01302548 -0.018500019
0.039091837 0.012979385 -0.018500019
0.040971436 0.013045424 -0.018500015
0.042992674 0.0130102 -0.018500015
0.04454359 0.012707427 -0.018422293
-0.044934973 0.015005641 -0.018426651
-0.042958356 0.015011167 -0.018500019
-0.040952589 0.014998681 -0.018500013
-0.03900307 0.015016546 -0.018500024
-0.036996517 0.015003131 -0.018500017
-0.035056833 0.014917906 -0.018500019
-0.03305839 0.015050284 -0.018500017
-0.03101532 0.015013076 -0.01850001
-0.029124074 0.014748213 -0.018500013
-0.027008915 0.015023647 -0.018500015
-0.024850456 0.0147221 -0.018500021
-0.02309606 0.014991577 -0.01850001
-0.021076541 0.014988538 -0.018500015
-0.019035777 0.014989564 -0.018500024
-0.016984513 0.014965533 -0.018500013
-0.015048997 0.014940521 -0.018500023
-0.012983165 0.014978902 -0.018500019
-0.011010758 0.014941111 -0.018500019
-0.0089527071 0.014992249 -0.018500015
-0.0070114485 0.015063453 -0.01850001
-0.0050443448 0.015027374 -0.018500026
-0.0030174933 0.015022228 -0.018500021
-0.00098197372 0.015037815 -0.018500019
0.0010521677 0.015002917 -0.018500004
0.0029861678 0.015045606 -0.018500026
0.0050564324 0.014973298 -0.018500017
0.0070251301 0.014675409 -0.018500015
0.0089989929 0.014984026 -0.018500019
0.010977086 0.015012397 -0.018500019
0.012746717 0.014778164 -0.018500015
0.015064986 0.014905178 -0.018500008
0.017044894 0.014948379 -0.018500019
0.01901228 0.015019737 -0.018500015
0.02107132 0.014768496 -0.018500013
0.022992227 0.014929498 -0.018500024
0.02491511 0.014904677 -0.018500021
0.027017206 0.015071832 -0.018500021
0.028952237 0.014955842 -0.018500021
0.03059154 0.014878592 -0.018500017
0.032924138 0.015043898 -0.018500013
0.034817956 0.014947537 -0.018500028
0.036995158 0.014992606 -0.018500021
0.03890859 0.014906115 -0.018500019
0.040988658 0.015036997 -0.018500013
0.043035749 0.015080328 -0.018500013
0.044925168 0.014997467 -0.01842805
-0.044891134 0.016924083 -0.018434286
-0.042624578 0.016717548 -0.018500015
-0.040959105 0.017002836 -0.018500015
-0.039097201 0.016950725 -0.018500013
-0.036796041 0.016787037 -0.018500013
-0.035062443 0.017081268 -0.018500019
-0.032995634 0.016935492 -0.018500023
-0.03094277 0.016921105 -0.018500023
-0.028687483 0.016842229 -0.018500019
-0.026977688 0.016987108 -0.018500013
-0.025044244 0.017027412 -0.018500017
-0.022992477 0.017000325 -0.018500026
-0.020949576 0.016985781 -0.018500015
-0.018809849 0.016774869 -0.018500019
-0.017024679 0.017058901 -0.018500024
-0.014930938 0.017072754 -0.018500019
-0.013016846 0.016994761 -0.018500019
-0.010991108 0.016981872 -0.018500013
-0.0090300655 0.016973097 -0.018500024
-0.0069565722 0.01692513 -0.018500024
-0.0050404728 0.017000496 -0.018500024
-0.0030521189 0.016983831 -0.018500015
-0.00098594395 0.017122345 -0.018500015
0.00097144162 0.017007424 -0.018500019
0.003221212 0.016688937 -0.018500015
0.0049582385 0.017031556 -0.018500017
0.0069468655 0.016985592 -0.018500026
0.0091548692 0.016994296 -0.018499613
0.010964879 0.016997552 -0.018500019
0.013018816 0.016998079 -0.018500015
0.014995927 0.016976619 -0.018500011
0.01707655 0.016995484 -0.018500023
0.019025931 0.017011097 -0.018500021
0.021026101 0.016951382 -0.018500015
0.022959135 0.016949402 -0.018500017
0.024956515 0.016780993 -0.018500013
0.027062519 0.017040214 -0.018500024
0.028962487 0.016969478 -0.018500017
0.030953588 0.016940191 -0.018500021
0.033063874 0.017092286 -0.018500019
0.035029821 0.01698466 -0.018500026
0.037071072 0.016997192 -0.018500019
0.038683325 0.016951334 -0.018500015
0.040543269 0.016813483 -0.018500015
0.04289287 0.016989287 -0.018500023
0.044890385 0.017010698 -0.018439639
-0.0449179 0.019096684 -0.018460577
-0.043002926 0.019045917 -0.018500028
-0.040960863 0.018987332 -0.018500026
-0.03895643 0.019069729 -0.018500021
-0.037007309 0.018936671 -0.018500021
-0.035000294 0.018970175 -0.018500023
-0.032991868 0.018956915 -0.01850001
-0.030923473 0.018955328 -0.018500019
-0.029025076 0.018996241 -0.018500017
-0.027069176 0.019052356 -0.018500015
-0.024949167 0.018907754 -0.018500021
-0.023078665 0.019029118 -0.018500013
-0.021118345 0.019011371 -0.018500013
-0.018943137 0.018955622 -0.018500011
-0.016716497 0.018900158 -0.018500013
-0.01500089 0.018977869 -0.018500026
-0.012958572 0.019037485 -0.018500015
-0.01104426 0.0189889 -0.018500013
-0.0089167589 0.018999392 -0.018500021
-0.0069551235 0.019003693 -0.018500013
-0.0050300057 0.019025918 -0.018500024
-0.0030010582 0.01900105 -0.018500011
-0.0010030461 0.019015072 -0.018500019
0.00091683876 0.019030761 -0.018500024
0.0030330366 0.019016672 -0.018500021
0.0050042337 0.01901418 -0.018500019
0.0069365096 0.018999178 -0.018500021
0.0089565013 0.019018577 -0.018500019
0.010769647 0.018855724 -0.018500021
0.013053899 0.019013632 -0.018500023
0.015017325 0.018966537 -0.018500019
0.017055567 0.019020427 -0.018500019
0.019060912 0.018980799 -0.018500006
0.021111812 0.01902038 -0.018500004
0.022894906 0.019002052 -0.018500015
0.025025466 0.019043095 -0.018500013
0.027087539 0.019084917 -0.018500013
0.028990299 0.018989883 -0.018500021
0.030984186 0.018958082 -0.018500015
0.032753702 0.018960768 -0.018500026
0.034993183 0.018993318 -0.018500021
0.036977869 0.018967595 -0.018500023
0.038975894 0.019086512 -0.018500026
0.04100167 0.018997489 -0.018500024
0.042937744 0.018967284 -0.018500024
0.04490814 0.018926462 -0.018439054
-0.044846836 0.021002552 -0.01845769
-0.043048315 0.021042071 -0.018500017
-0.041008789 0.021026829 -0.018500024
-0.038986512 0.020996304 -0.018500021
-0.037049856 0.021014584 -0.018500026
-0.035083268 0.020990634 -0.018500019
-0.033041142 0.021036616 -0.018500023
-0.030950982 0.021033613 -0.018500015
-0.029010735 0.021052171 -0.018500011
-0.026925769 0.02097071 -0.018500019
-0.025032191 0.021003392 -0.018500013
-0.02298741 0.021113211 -0.01850001
-0.020921705 0.021011045 -0.018500021
-0.018958626 0.021044452 -0.018500008
-0.016999459 0.020945437 -0.018500015
-0.01499099 0.020984853 -0.018500026
-0.01293199 0.02094391 -0.018500015
-0.010915343 0.0209314 -0.018500015
-0.0090166666 0.020979609 -0.018500011
-0.0066938065 0.020837374 -0.018499622
-0.0050469148 0.021030601 -0.018500019
-0.0029521063 0.021039201 -0.018500024
-0.00095493865 0.020986203 -0.018500021
0.00096288911 0.021014547 -0.018500021
0.0030329421 0.02105541 -0.018500019
0.0050104056 0.021109199 -0.018500015
0.0070297313 0.021035112 -0.018500002
0.0089699188 0.021040982 -0.018500008
0.01096182 0.021034006 -0.018500024
0.013085133 0.020765407 -0.018500024
0.014975802 0.020929728 -0.018500019
0.017007953 0.021016557 -0.018500019
0.018992204 0.020969518 -0.018500019
0.021057088 0.021013685 -0.018500024
0.022956776 0.02101519 -0.018500024
0.024929876 0.021023791 -0.018500021
0.026894111 0.020952286 -0.018500019
0.029037908 0.021012209 -0.018500013
0.030883115 0.020822948 -0.018500015
0.032975029 0.021010114 -0.018500015
0.035016391 0.021039998 -0.018500021
0.036824085 0.020744553 -0.018500023
0.039056569 0.020984406 -0.018500015
0.040995095 0.021055302 -0.018500024
0.043054193 0.020943372 -0.018500024
0.044641417 0.020976678 -0.018431511
-0.044915218 0.022996027 -0.018413603
-0.042939607 0.022988833 -0.018500013
-0.040980816 0.022989132 -0.018500026
-0.039022289 0.023004616 -0.01850001
-0.036989506 0.023041321 -0.018500023
-0.03496905 0.02294356 -0.018500015
-0.032702781 0.022716086 -0.018500013
-0.031021437 0.023006223 -0.018500023
-0.028977733 0.022625715 -0.018500023
-0.027033038 0.023057537 -0.018500015
-0.025009634 0.023045931 -0.018500021
-0.022956399 0.022973871 -0.018500023
-0.021037441 0.022804894 -0.018500028
-0.018958146 0.022987526 -0.018500017
-0.017026072 0.02306553 -0.018500021
-0.015118587 0.023022266 -0.018500015
-0.012988477 0.022983002 -0.018500019
-0.011014797 0.02299954 -0.018500026
-0.0089850482 0.023055445 -0.018500021
-0.0070176916 0.023020599 -0.018500021
-0.0049638618 0.022953194 -0.018500017
-0.0029928733 0.023022188 -0.018500021
-0.00081902859 0.023079297 -0.018500011
0.00094754505 0.023080198 -0.018500015
0.0029770464 0.022939198 -0.018500019
0.0051294398 0.022863563 -0.018500023
0.0069662444 0.022899032 -0.018500021
0.0089873057 0.022816245 -0.018500024
0.011026602 0.022979112 -0.018500021
0.013079002 0.022824375 -0.018500023
0.015072589 0.023006653 -0.018500013
0.016976517 0.023020361 -0.018500017
0.01907243 0.022999194 -0.018500015
0.02106544 0.022959417 -0.018500019
0.023051525 0.023038505 -0.018500026
0.024657486 0.022691207 -0.018500019
0.027012564 0.022900825 -0.018500024
0.029023757 0.023012111 -0.018500023
0.030945677 0.022892153 -0.018500006
0.033039983 0.022945838 -0.018500015
0.035011671 0.022964064 -0.018500026
0.036694087 0.022810541 -0.018500017
0.038936149 0.022999613 -0.018500026
0.04104184 0.022988588 -0.018500015
0.042900968 0.02298535 -0.018500013
0.044922084 0.022990363 -0.018431615
-0.044966217 0.025083503 -0.018428942
-0.04302074 0.025003294 -0.018500011
-0.041045323 0.024979457 -0.018500019
-0.038998496 0.025036741 -0.018500017
-0.0369992 0.025053747 -0.018500017
-0.035015382 0.025000133 -0.018500026
-0.033048987 0.024970254 -0.018500019
-0.030953547 0.025016025 -0.018500024
-0.028974432 0.024860788 -0.018500021
-0.026948644 0.025010427 -0.018500028
-0.025064044 0.025026435 -0.018500011
-0.023033194 0.025109842 -0.018500015
-0.020962831 0.024994053 -0.018500019
-0.019103792 0.025023974 -0.018500019
-0.016933039 0.025048604 -0.018500023
-0.015019529 0.025070613 -0.018500021
-0.012961997 0.025082448 -0.018500011
-0.011163053 0.025010066 -0.018500021
-0.0089189382 0.025017742 -0.018500023
-0.0070805671 0.02497595 -0.018500015
-0.0050415522 0.024969082 -0.018500023
-0.0030400984 0.024950659 -0.018500024
-0.0010116401 0.025026727 -0.018500024
0.00095885544 0.025035363 -0.018500015
0.0030246773 0.024987068 -0.018500019
0.0049398257 0.025047194 -0.018500015
0.0069567794 0.0250377 -0.018500021
0.0090623423 0.025020968 -0.018500015
0.010970667 0.024975816 -0.018500013
0.012903957 0.025077289 -0.01850003
0.014841693 0.024856534 -0.018500019
0.017058253 0.025090337 -0.018500021
0.018675098 0.024961283 -0.018500011
0.021148015 0.025015017 -0.018500021
0.023007412 0.024970045 -0.018500026
0.024976334 0.024968987 -0.018500023
0.026960487 0.025043216 -0.018500026
0.028632816 0.024679128 -0.018500015
0.031010419 0.024977144 -0.01850003
0.032961048 0.024998071 -0.018500021
0.034571145 0.02478737 -0.018500019
0.037001237 0.025027258 -0.018500026
0.03900053 0.024959717 -0.018500021
0.04097693 0.025012186 -0.018500021
0.043065097 0.025093919 -0.018500021
0.044843782 0.025038172 -0.018438203
-0.04485758 0.026955841 -0.018440247
-0.043079853 0.027034586 -0.018500024
-0.041029874 0.026703056 -0.018500021
-0.039068226 0.026999582 -0.018500017
-0.037035137 0.026947705 -0.018500015
-0.034987751 0.026991198 -0.018500026
-0.033028979 0.026950719 -0.018500021
-0.030980229 0.026991237 -0.018500013
-0.029015828 0.02697216 -0.018500021
-0.026972605 0.026980732 -0.018500026
-0.025003893 0.026765283 -0.018500008
-0.02302321 0.026987633 -0.018500015
-0.021039613 0.026896611 -0.018500026
-0.019058911 0.026916465 -0.018500015
-0.017050263 0.02702664 -0.018500021
-0.015050775 0.026994463 -0.018500023
-0.012989047 0.026975101 -0.018500017
-0.0110799 0.026767574 -0.018500017
-0.0086269658 0.0267289 -0.01849962
-0.0068712523 0.02678426 -0.018500017
-0.0049219579 0.026709056 -0.018500015
-0.0027687112 0.026967235 -0.018500024
-0.00096204528 0.026922321 -0.018500019
0.0010014811 0.026973668 -0.018500015
0.0029283566 0.027010085 -0.018500015
0.0050232448 0.027086882 -0.018500019
0.0069777863 0.027040111 -0.018500028
0.0090661785 0.026959797 -0.018500023
0.010963883 0.026993653 -0.018500019
0.013141013 0.026808735 -0.018500024
0.015043344 0.026949162 -0.018500021
0.016991694 0.026912171 -0.018500015
0.018970665 0.027006555 -0.018500015
0.021014007 0.027056621 -0.018500021
0.023053287 0.027019804 -0.018500023
0.024926357 0.026987558 -0.018500026
0.027054822 0.027017156 -0.018500023
0.029006442 0.026973452 -0.018500021
0.031014992 0.026922969 -0.018500021
0.032962818 0.026957864 -0.018500015
0.03499556 0.026915072 -0.018500019
0.037007224 0.0269731 -0.018500028
0.039064232 0.026973048 -0.018500013
0.040980335 0.026981913 -0.018500013
0.043069214 0.026990181 -0.018500017
0.044744287 0.026740106 -0.018424718
-0.044942621 0.029062236 -0.018429076
-0.04305464 0.02899964 -0.018500017
-0.040669806 0.029014817 -0.018500023
-0.039034899 0.028944531 -0.018500015
-0.03660639 0.028896961 -0.018500019
-0.034687076 0.028829113 -0.018500013
-0.033040255 0.028966799 -0.018500021
-0.030995674 0.028936893 -0.018500015
-0.028588386 0.028807452 -0.018500017
-0.026980076 0.028974725 -0.018500023
-0.025085229 0.029022219 -0.018500015
-0.023027752 0.029060967 -0.018500021
-0.020967599 0.028998146 -0.01850001
-0.01899481 0.028814841 -0.018500021
-0.01696516 0.029035917 -0.018500024
-0.015127691 0.028733436 -0.018500026
-0.013017553 0.029018788 -0.018500015
-0.010974928 0.028756071 -0.018500023
-0.0088956645 0.028807962 -0.018500019
-0.0069647548 0.029018665 -0.018500017
-0.0050077206 0.028959133 -0.018500015
-0.0030074716 0.028979048 -0.018500011
-0.00095802278 0.029091753 -0.018500013
0.0007856455 0.02880512 -0.018500021
0.0029638358 0.028725658 -0.018500024
0.0050599528 0.028961558 -0.018500017
0.0070710969 0.028784439 -0.018500023
0.0089604752 0.028908404 -0.018500023
0.011046037 0.028958574 -0.018500026
0.013026046 0.029041324 -0.018500023
0.014989836 0.028970405 -0.018500017
0.017024107 0.028937865 -0.018500024
0.018926224 0.028912073 -0.018500021
0.020724652 0.02880376 -0.018500026
0.02298368 0.029009148 -0.018500028
0.02502756 0.028956782 -0.018500013
0.027004208 0.028977262 -0.018500013
0.029077191 0.028971441 -0.018500026
0.030502414 0.028455716 -0.018499717
0.033024043 0.028984131 -0.018500019
0.034970686 0.02900341 -0.018500015
0.037093908 0.029024052 -0.018500023
0.03898038 0.02900151 -0.018500011
0.040961239 0.028920446 -0.018500024
0.0429722 0.028740885 -0.018500026
0.044896979 0.028984394 -0.018445859
-0.044864196 0.031001486 -0.018451601
-0.04298253 0.03094304 -0.018500019
-0.040996168 0.03099218 -0.018500026
-0.038962629 0.030970968 -0.018500023
-0.037072457 0.030969933 -0.018500023
-0.034549419 0.03087401 -0.018500019
-0.033020731 0.0309393 -0.018500019
-0.030808123 0.030854043 -0.018500015
-0.029046573 0.031003205 -0.018500019
-0.026986299 0.031008923 -0.018500019
-0.02499141 0.030947419 -0.018500017
-0.022979094 0.031032596 -0.018500013
-0.021041237 0.031031854 -0.018500015
-0.019056836 0.031026466 -0.018500023
-0.016987465 0.030994952 -0.018500019
-0.014953283 0.030971758 -0.018500019
-0.012953944 0.030689575 -0.01850003
-0.010943291 0.031012336 -0.018500021
-0.0088822152 0.030789746 -0.018499555
-0.0070198784 0.030965809 -0.018500006
-0.0049800598 0.030997649 -0.018500013
-0.0029809312 0.030930597 -0.018500021
-0.0010591964 0.031029221 -0.018500015
0.0011304725 0.030893421 -0.018500019
0.0030540398 0.030976683 -0.018500021
0.0050157518 0.031017376 -0.018500019
0.0069705364 0.031023927 -0.018500024
0.0090126172 0.031084683 -0.018500028
0.010935566 0.030780902 -0.018500015
0.013032088 0.031032672 -0.018500011
0.014974089 0.030973643 -0.018500013
0.016633779 0.030899333 -0.018499535
0.018997226 0.03100682 -0.018500026
0.021041553 0.031022867 -0.018500024
0.023018992 0.031012939 -0.018500017
0.024853116 0.03093409 -0.018500021
0.027009681 0.030962586 -0.018500023
0.029018519 0.030967502 -0.018500017
0.031015702 0.030616228 -0.018500023
0.033073839 0.030916497 -0.018500021
0.035025131 0.030966029 -0.018500011
0.037044916 0.030973224 -0.018500026
0.039026823 0.031080445 -0.01850003
0.040950429 0.030940957 -0.018500013
0.042486835 0.03093884 -0.018500023
0.044931564 0.030969149 -0.018436993
-0.044881616 0.032362413 -0.018331066
-0.043053679 0.032356638 -0.018379247
-0.040292744 0.031973425 -0.01836291
-0.038952954 0.032378659 -0.018370196
-0.037020762 0.032389354 -0.018340973
-0.034099475 0.032203909 -0.018403841
-0.032490972 0.032152146 -0.018377256
-0.030940598 0.032380506 -0.018371474
-0.029128151 0.03206639 -0.018379165
-0.027069414 0.032395553 -0.018382208
-0.025029162 0.032366801 -0.018377727
-0.023021964 0.032341786 -0.018415859
-0.020908009 0.032378592 -0.018338148
-0.018990224 0.032390945 -0.01833402
-0.016861279 0.032367259 -0.01837123
-0.014972741 0.032360759 -0.018402098
-0.013024334 0.032384112 -0.018369157
-0.010729049 0.032084979 -0.018364379
-0.0090661775 0.03237712 -0.018337699
-0.0069352295 0.032362062 -0.018366499
-0.0050200596 0.032373741 -0.018370904
-0.0029858027 0.03237626 -0.018360974
-0.00099550781 0.032380056 -0.018370179
0.0010711118 0.032361574 -0.01839143
0.0030319586 0.032352038 -0.018406302
0.005329953 0.032023482 -0.018382378
0.0073522925 0.032007333 -0.018381406
0.0084599415 0.032340061 -0.018398631
0.011147107 0.032398298 -0.018368805
0.013103683 0.032361344 -0.018380227
0.014810392 0.032357659 -0.018370984
0.016942456 0.032356344 -0.018367479
0.018996734 0.03239198 -0.018366156
0.020430114 0.032188989 -0.018381231
0.023023115 0.03237525 -0.018366456
0.025183389 0.031768158 -0.018383538
0.02707817 0.032367006 -0.018369898
0.028982192 0.032349743 -0.018376384
0.03096059 0.032400172 -0.018376432
0.033000551 0.032350998 -0.018387893
0.034995012 0.032380741 -0.018375279
0.037041146 0.032388128 -0.018366352
0.038960714 0.03238691 -0.018392768
0.04088949 0.032368649 -0.018357305
0.042954456 0.032358449 -0.018361609
0.043704998 0.031624161 -0.01837318
-0.044870105 -0.032438748 -0.016990213
-0.042716209 -0.032426108 -0.016995236
-0.040902756 -0.032442991 -0.017009931
-0.038956776 -0.032499943 -0.017000327
-0.036941357 -0.032499965 -0.017119575
-0.034746606 -0.032139469 -0.016959224
-0.033037126 -0.032499939 -0.017068353
-0.030971229 -0.032499962 -0.017027631
-0.028755825 -0.032308154 -0.016964354
-0.02691317 -0.032499969 -0.017030882
-0.024979616 -0.032499947 -0.017052842
-0.023073638 -0.032166969 -0.016969213
-0.021037623 -0.032499958 -0.01694268
-0.018980432 -0.03249998 -0.016960118
-0.017004421 -0.032152507 -0.01699784
-0.015032517 -0.032499939 -0.016912503
-0.013044123 -0.032499958 -0.017008584
-0.011077765 -0.032403931 -0.017018337
-0.0091711637 -0.03217921 -0.016988844
-0.007073055 -0.032499984 -0.017073382
-0.0050462801 -0.03249995 -0.017125022
-0.0030298338 -0.032499965 -0.016927449
-0.00097817194 -0.032499973 -0.017013704
0.00098305498 -0.032499954 -0.016984865
0.0031409303 -0.032242619 -0.016965413
0.0049625579 -0.032499984 -0.016999023
0.0070045716 -0.032499954 -0.017062036
0.0090553155 -0.032499947 -0.016964497
0.010992449 -0.032499976 -0.016972313
0.012967191 -0.032499965 -0.017034099
0.014996249 -0.032499943 -0.017031945
0.017038528 -0.032499958 -0.017026933
0.019024061 -0.032499965 -0.017020952
0.02100121 -0.032499976 -0.016980924
0.02304388 -0.032499976 -0.016952079
0.025007797 -0.032499954 -0.017024705
0.026984615 -0.032499976 -0.016999604
0.028916761 -0.032228399 -0.017053086
0.030616231 -0.032114856 -0.016966552
0.033007395 -0.032499954 -0.01700547
0.034969572 -0.032499958 -0.016945383
0.037006695 -0.032499973 -0.016989667
0.038963992 -0.032499962 -0.016962687
0.04073691 -0.032027192 -0.016987633
0.042515367 -0.032392692 -0.017014056
0.044994615 -0.032427784 -0.017027808
-0.045496121 -0.030672494 -0.016928192
0.045499917 -0.031034809 -0.016957935
-0.045499913 -0.02894569 -0.017049169
0.045499921 -0.029001391 -0.016990481
-0.045499925 -0.026950872 -0.017006941
0.045499917 -0.026926572 -0.017013038
-0.04549991 -0.025062123 -0.017022874
0.045499902 -0.024914009 -0.017036313
-0.04549991 -0.022977684 -0.017006142
0.045499913 -0.023032045 -0.017018905
-0.045499928 -0.020987505 -0.017017223
0.045499913 -0.02108158 -0.016990766
-0.045499913 -0.019093713 -0.016976146
0.04549991 -0.019051705 -0.016998351
-0.045499917 -0.017028276 -0.017021952
0.045499913 -0.016991561 -0.017006967
-0.045248192 -0.015078252 -0.016947601
0.045499917 -0.015007462 -0.017026734
-0.045499921 -0.013019834 -0.016980398
0.045470275 -0.013034291 -0.017003244
-0.04549991 -0.01103918 -0.017036568
0.045267336 -0.010990787 -0.017055016
-0.045296911 -0.0089938445 -0.017030265
0.045404695 -0.0088966871 -0.016997954
-0.045499913 -0.0070338086 -0.016988296
0.04549991 -0.0069706026 -0.016981313
-0.045484297 -0.0051287124 -0.016986156
0.045499913 -0.0050615044 -0.016982533
-0.045401402 -0.0027539136 -0.017073283
0.045499928 -0.0030141308 -0.016906962
-0.045168813 -0.00086222513 -0.01697346
0.045083866 -0.0010428024 -0.016982881
-0.045499921 0.0010633125 -0.01701845
0.045499906 0.00099480269 -0.016962644
-0.045208834 0.0031053994 -0.017025519
0.045071322 0.0030076033 -0.016956782
-0.045499902 0.0049618362 -0.016975284
0.045499913 0.0049908129 -0.016992981
-0.045499925 0.0070498302 -0.016939528
0.045499917 0.006936885 -0.016961681
-0.045499906 0.009064178 -0.017056091
0.045499913 0.009010762 -0.016967267
-0.045499925 0.011020771 -0.01702974
0.045499913 0.010979255 -0.017056301
-0.044909026 0.012779405 -0.017014874
0.045258369 0.012824266 -0.016998725
-0.045072913 0.014917647 -0.017026786
0.045499932 0.014970541 -0.017024968
-0.04549991 0.01690436 -0.017028837
0.045019761 0.016827587 -0.016926402
-0.045499925 0.018979153 -0.017000601
0.045499913 0.018986207 -0.016978091
-0.045499913 0.020946454 -0.016971873
0.04538992 0.020859657 -0.017077455
-0.045499921 0.023039976 -0.016970824
0.045499913 0.022960462 -0.017035095
-0.045499913 0.025006564 -0.017015085
0.045499921 0.024997747 -0.016970307
-0.045106117 0.026863035 -0.017035309
0.045499917 0.027006608 -0.016909551
-0.044978943 0.028882833 -0.017024871
0.045499917 0.029004864 -0.016934555
-0.045499917 0.030999009 -0.017010376
0.045499921 0.031002834 -0.017027419
-0.044961616 0.032437265 -0.016970832
-0.043018159 0.032499973 -0.017097879
-0.04100085 0.03249995 -0.017013639
-0.037964389 0.032326389 -0.017055752
-0.037030827 0.032499958 -0.016907679
-0.034897231 0.032155354 -0.017039293
-0.03294092 0.032499976 -0.017018316
-0.031065756 0.032499962 -0.017031765
-0.0290202 0.032188881 -0.017045774
-0.027016606 0.032499958 -0.01699806
-0.025037194 0.032499958 -0.016963772
-0.022984842 0.032499958 -0.016987884
-0.020805946 0.032291643 -0.016977241
-0.019065551 0.032354314 -0.017005306
-0.016929751 0.032499962 -0.016985619
-0.014977613 0.032499958 -0.016976271
-0.013007679 0.032499984 -0.017000832
-0.011023142 0.032499973 -0.017089425
-0.0090962779 0.032499965 -0.016886763
-0.0069545819 0.032499965 -0.017010195
-0.0049932026 0.032499962 -0.017016469
-0.0029141482 0.032499943 -0.017026296
-0.00094087142 0.03249995 -0.01700688
0.00099150708 0.03249995 -0.016999159
0.0029992019 0.032499976 -0.016971832
0.0049696942 0.032499958 -0.01695922
0.0070026987 0.032499969 -0.016959356
0.0090145823 0.032499954 -0.017042747
0.010980358 0.032499976 -0.016965894
0.012952453 0.032499984 -0.016926059
0.01497219 0.032499976 -0.017091097
0.016772419 0.032490883 -0.017088134
0.019022794 0.032499988 -0.016935213
0.020953881 0.032499965 -0.016915677
0.02267411 0.032206047 -0.017019017
0.024748875 0.032480303 -0.017059229
0.026998563 0.032499943 -0.017021839
0.028978504 0.032499965 -0.017084645
0.031050131 0.032499976 -0.017113373
0.032972507 0.032158569 -0.016966317
0.034914732 0.032499976 -0.016941026
0.036977567 0.032499958 -0.017015222
0.03899134 0.03249995 -0.016935704
0.041062135 0.032499939 -0.017019538
0.042986427 0.032499965 -0.017012505
0.044949193 0.032356702 -0.017061794
-0.04498814 -0.032442421 -0.014911476
-0.042875268 -0.032499954 -0.014946021
-0.040938549 -0.032499962 -0.015039723
-0.038494695 -0.032155581 -0.01494392
-0.036700621 -0.03237123 -0.015027716
-0.035003636 -0.032499947 -0.015002859
-0.032588046 -0.032367118 -0.014990985
-0.031040948 -0.032499943 -0.015003442
-0.029021202 -0.032499965 -0.014968628
-0.027033042 -0.032499999 -0.014949001
-0.024831783 -0.032406416 -0.014982887
-0.022978771 -0.032499969 -0.015058069
-0.021015048 -0.032499965 -0.014928814
-0.018978084 -0.032499969 -0.014994671
-0.017014245 -0.03249995 -0.014920365
-0.014935171 -0.032294184 -0.014968183
-0.013155182 -0.032286514 -0.015083479
-0.011054841 -0.032499969 -0.01494692
-0.0090331938 -0.032499965 -0.014954802
-0.0072597517 -0.032362606 -0.014948544
-0.0049320878 -0.032499943 -0.014972571
-0.0030975309 -0.03230378 -0.015065856
-0.0010115455 -0.032499958 -0.015006057
0.00099232898 -0.032499962 -0.014925255
0.0029329285 -0.032251559 -0.015084254
0.0050357706 -0.032499928 -0.014990537
0.0070950519 -0.032499976 -0.01499499
0.0090572061 -0.03249998 -0.01507058
0.011100854 -0.032147542 -0.014969112
0.013031033 -0.032499958 -0.015009213
0.014945009 -0.03249998 -0.014982947
0.016936457 -0.03249995 -0.014961182
0.019005122 -0.032499962 -0.015045721
0.020992914 -0.032499943 -0.015033119
0.022998786 -0.032499947 -0.014999765
0.025003487 -0.032499999 -0.014995351
0.02702781 -0.03249995 -0.014986008
0.029037576 -0.032499999 -0.015060007
0.030909941 -0.032499958 -0.014978071
0.032941364 -0.032499958 -0.015020807
0.034804963 -0.032491211 -0.015035458
0.036978822 -0.032499947 -0.014987245
0.038907595 -0.032499965 -0.015054253
0.041038226 -0.032499962 -0.015009633
0.042990405 -0.032499958 -0.014926369
0.044690531 -0.032292489 -0.015064009
-0.045321841 -0.030562812 -0.015057445
0.045302175 -0.030535199 -0.015057192
-0.045009498 -0.028932383 -0.015031244
0.04549991 -0.028997825 -0.014933217
-0.045433059 -0.026935756 -0.014963849
0.045499917 -0.026983941 -0.014968425
-0.045454241 -0.025005067 -0.015004196
0.04521919 -0.024754656 -0.015021606
-0.045499917 -0.0229569 -0.014973189
0.045499928 -0.023076575 -0.015001701
-0.045499928 -0.021027895 -0.015065033
0.044782519 -0.020808447 -0.015003858
-0.04515567 -0.018881241 -0.015057464
0.04549991 -0.01898543 -0.014976841
-0.045499925 -0.01699204 -0.014982427
0.045499928 -0.01699218 -0.015094182
-0.044970851 -0.014893033 -0.01499708
0.045499913 -0.015015195 -0.014989108
-0.045239553 -0.013127365 -0.015037949
0.045499913 -0.012953426 -0.015033734
-0.045499928 -0.011084259 -0.01494108
0.045499913 -0.010982165 -0.014989276
-0.045110151 -0.0088302121 -0.015065168
0.045499932 -0.0089895846 -0.014988807
-0.04549991 -0.0070143957 -0.01505911
0.045291107 -0.0067503899 -0.014971812
-0.045499917 -0.0050351769 -0.014923993
0.045428123 -0.0050299768 -0.014955853
-0.045499913 -0.003069402 -0.015013143
0.0450757 -0.0028538003 -0.015045574
-0.045499917 -0.0010220231 -0.015010975
0.045031644 -0.00084060075 -0.015037431
-0.045499925 0.001027392 -0.015044584
0.045499921 0.00093943876 -0.01501441
-0.04549991 0.0029907417 -0.015015979
0.045499932 0.0029904894 -0.014890275
-0.045222975 0.0050177928 -0.015083984
0.044963263 0.0047645802 -0.014943541
-0.045111813 0.0070966952 -0.01498423
0.045499913 0.0069444496 -0.015041734
-0.04549991 0.0089811673 -0.015030979
0.045499917 0.0089818407 -0.015035992
-0.045499917 0.010952766 -0.014952894
0.04549991 0.011028415 -0.015003962
-0.045499913 0.013060048 -0.015021079
0.045499921 0.013019604 -0.014968493
-0.0454395 0.014801923 -0.01506683
0.045499917 0.015030252 -0.015010306
-0.045499913 0.016997926 -0.015005629
0.045499932 0.016982662 -0.014948013
-0.045499898 0.018988358 -0.015019415
0.045042619 0.018761583 -0.014952321
-0.045499913 0.02106192 -0.015036129
0.04549991 0.02108261 -0.015014836
-0.045499932 0.02305343 -0.015031589
0.045499936 0.023052001 -0.014912773
-0.045499932 0.025003146 -0.015066031
0.045499906 0.024985148 -0.014961459
-0.045498163 0.026882721 -0.014974765
0.045499913 0.027023161 -0.015045604
-0.045499921 0.028897973 -0.014987659
0.045418989 0.029013265 -0.014999233
-0.045499913 0.031007692 -0.015002296
0.04549991 0.031006526 -0.014937109
-0.045022149 0.032423947 -0.015040588
-0.042802453 0.032175481 -0.014925239
-0.041041616 0.032499965 -0.014964625
-0.038658332 0.031679563 -0.015086085
-0.036978371 0.032499969 -0.014968915
-0.034989849 0.032499976 -0.014972279
-0.033041988 0.032499988 -0.015060522
-0.031040642 0.032499988 -0.015040107
-0.028604798 0.032359783 -0.015083288
-0.026932741 0.032499976 -0.015048796
-0.024536923 0.032136992 -0.015056739
-0.023037616 0.032499976 -0.014972402
-0.020671131 0.032167137 -0.014990855
-0.019055987 0.032499958 -0.015004796
-0.017035313 0.032499965 -0.015004115
-0.014954596 0.032499965 -0.014941534
-0.013153002 0.032203417 -0.015002972
-0.011015818 0.032499947 -0.015013588
-0.0089555969 0.032499943 -0.01499845
-0.0072475574 0.032435402 -0.015028029
-0.0049485248 0.032499965 -0.014961204
-0.0030552854 0.032455996 -0.014968223
-0.0010934728 0.032499954 -0.014986821
0.0010801108 0.032499947 -0.015032579
0.0031189427 0.032499943 -0.015009137
0.0049515362 0.032499947 -0.014998139
0.0069455048 0.032499943 -0.014963532
0.00897865 0.03249995 -0.015003563
0.01096951 0.032499965 -0.014997629
0.013035598 0.032499973 -0.014995036
0.015066125 0.03249174 -0.015091348
0.017002577 0.032499954 -0.014984927
0.018933751 0.032313041 -0.015005287
0.020969465 0.032499958 -0.01500779
0.022955641 0.032499958 -0.014995874
0.025019897 0.032499973 -0.014989839
0.027095202 0.032499965 -0.014955257
0.028955825 0.032499973 -0.015014655
0.030790865 0.03210289 -0.015077735
0.032982387 0.032499947 -0.015054838
0.034990359 0.032499958 -0.015036012
0.036988787 0.032499988 -0.014982892
0.039021086 0.03249995 -0.014969592
0.040995471 0.032499947 -0.015103564
0.042987879 0.032499947 -0.015029101
0.044848893 0.032436993 -0.015022933
-0.044375088 -0.032086119 -0.013013304
-0.042990997 -0.032499958 -0.012968125
-0.040658228 -0.032476559 -0.012987144
-0.038549744 -0.032491904 -0.013008989
-0.036993437 -0.032176431 -0.013059137
-0.03496401 -0.032499984 -0.013041327
-0.033026107 -0.032499962 -0.012992609
-0.030574372 -0.0321237 -0.013016759
-0.028989192 -0.032499965 -0.013017255
-0.027091673 -0.032499954 -0.012961368
-0.025071392 -0.032499954 -0.012938956
-0.022956731 -0.032499965 -0.012986804
-0.021111347 -0.032499958 -0.013021033
-0.019014413 -0.032499958 -0.01303141
-0.016998475 -0.032499943 -0.012958655
-0.014915531 -0.032290421 -0.013060509
-0.013065204 -0.032499943 -0.013080115
-0.011003158 -0.032499958 -0.012997494
-0.0085540609 -0.031944375 -0.012968319
-0.0069982861 -0.032499962 -0.012994314
-0.0050079376 -0.032499962 -0.013090552
-0.0030350387 -0.032499973 -0.013032858
-0.00096321886 -0.032499976 -0.012967639
0.00096957956 -0.032499965 -0.012911317
0.003019124 -0.03249995 -0.013054729
0.0049998183 -0.032499954 -0.012958532
0.0069793374 -0.032499965 -0.012992564
0.0090638641 -0.032499958 -0.012920345
0.010613968 -0.032094687 -0.013079562
0.012990802 -0.032499958 -0.013030243
0.01479451 -0.032239128 -0.013045784
0.016910193 -0.032499995 -0.012989704
0.019005442 -0.032499943 -0.013012316
0.020854732 -0.032176096 -0.013049109
0.023134172 -0.032499973 -0.012969775
0.02499602 -0.032499965 -0.013023054
0.026824452 -0.032210592 -0.013083654
0.028821446 -0.032379687 -0.012992384
0.031002304 -0.032499947 -0.012978366
0.032965183 -0.032499965 -0.013070047
0.035036102 -0.032499976 -0.01307172
0.036960386 -0.032499962 -0.013072575
0.039024744 -0.032499962 -0.012920504
0.040979721 -0.032499962 -0.013047922
0.042964786 -0.032499973 -0.012976186
0.044960957 -0.032440227 -0.013017463
-0.045330085 -0.030744044 -0.013073059
0.045499917 -0.030828178 -0.012964254
-0.045256227 -0.028744461 -0.013057097
0.045499921 -0.029037122 -0.01295426
-0.045499917 -0.02697156 -0.012986197
0.045499913 -0.026983853 -0.012991939
-0.045117911 -0.024942379 -0.013076855
0.045499917 -0.024974192 -0.012991174
-0.045499913 -0.022991709 -0.012992629
0.045088928 -0.022819173 -0.013019028
-0.045499917 -0.021013595 -0.012999265
0.045499917 -0.021027012 -0.013024902
-0.045499936 -0.019071108 -0.012970254
0.045499917 -0.018988738 -0.012958159
-0.045004893 -0.016632458 -0.013075226
0.045499902 -0.017007131 -0.01292645
-0.045499913 -0.015028922 -0.013033917
0.045499917 -0.014955506 -0.013027253
-0.045499917 -0.013058019 -0.01306972
0.045499917 -0.012933785 -0.013019907
-0.045499917 -0.011021182 -0.012949701
0.045499913 -0.010968267 -0.013003149
-0.045499917 -0.0089707896 -0.01293243
0.045499917 -0.0090689659 -0.013026869
-0.045499917 -0.0069058626 -0.012978699
0.045349728 -0.007053209 -0.013001358
-0.045499928 -0.0050190198 -0.013033904
0.045091778 -0.005004643 -0.013021875
-0.045075919 -0.0028388484 -0.013097979
0.045499913 -0.003030377 -0.013011158
-0.045499917 -0.00094675593 -0.012986921
0.045499917 -0.0010212824 -0.013010187
-0.045499898 0.0010125574 -0.013001474
0.045499913 0.00098181143 -0.012989209
-0.045230649 0.0028137022 -0.013055117
0.04549991 0.0029582041 -0.012926865
-0.045499928 0.0049640336 -0.013026728
0.045499921 0.0049414244 -0.012962139
-0.04534379 0.0071594897 -0.013035037
0.045499928 0.0069847535 -0.012968752
-0.045499928 0.0090390146 -0.012964699
0.045499913 0.0090167876 -0.013016252
-0.045499928 0.011029623 -0.013018464
0.045499906 0.010943396 -0.013026929
-0.045429893 0.012888913 -0.01300849
0.045499921 0.012987939 -0.013018998
-0.045499928 0.014903217 -0.013033927
0.045419428 0.014722582 -0.013026384
-0.045071553 0.017059209 -0.012966488
0.045499917 0.01699236 -0.013103242
-0.045499921 0.018920328 -0.012984911
0.045499921 0.018972524 -0.013075103
-0.045261879 0.020705964 -0.013085217
0.045499913 0.020942317 -0.013037247
-0.045468178 0.02284044 -0.013008718
0.045499925 0.023019783 -0.012948922
-0.045499928 0.025010569 -0.013000883
0.045183945 0.025051769 -0.013029034
-0.045499913 0.026942195 -0.01304689
0.045499925 0.027049093 -0.013090153
-0.045316916 0.028937558 -0.01305946
0.045114599 0.028802358 -0.013034504
-0.045499921 0.031016136 -0.013019354
0.045499917 0.031015426 -0.013016324
-0.044560757 0.032044377 -0.012936062
-0.042866018 0.032445692 -0.013011358
-0.041076291 0.032499965 -0.013091533
-0.038390782 0.031818863 -0.013022877
-0.036972139 0.032499954 -0.01294147
-0.034940045 0.032499976 -0.013016854
-0.032517418 0.032351661 -0.01301252
-0.030346995 0.032138515 -0.013067902
-0.028983999 0.032499965 -0.013065632
-0.026582552 0.032132816 -0.01306465
-0.02502477 0.032449447 -0.013063221
-0.022974357 0.032499976 -0.012940043
-0.020980498 0.032499976 -0.012994335
-0.018962873 0.032499973 -0.012957357
-0.016961491 0.032499947 -0.012948398
-0.014999738 0.032499943 -0.013018866
-0.013090097 0.032499958 -0.012969298
-0.011034467 0.03249998 -0.012978948
-0.0088746147 0.032499976 -0.013001104
-0.0070027658 0.032499943 -0.013041176
-0.0049711051 0.032499988 -0.013014026
-0.0030348417 0.03249995 -0.012950489
-0.00097511907 0.032499965 -0.012973069
0.000998765 0.032499958 -0.012881621
0.003071144 0.032204177 -0.013036772
0.0050579389 0.03208755 -0.013018985
0.0068834443 0.032499973 -0.012947541
0.0087388977 0.032375503 -0.012944738
0.011067809 0.032499939 -0.012934547
0.01309599 0.032452904 -0.013025738
0.0150753 0.032499958 -0.01298748
0.01699445 0.032499954 -0.013037221
0.018983111 0.032499958 -0.012987565
0.02060925 0.032489929 -0.013073162
0.023014048 0.032499962 -0.012974498
0.025000881 0.032499947 -0.013013335
0.027024597 0.032499954 -0.0130264
0.029064119 0.032241717 -0.012917313
0.030951779 0.032499958 -0.013036869
0.032990012 0.032499965 -0.013076689
0.034982335 0.032499935 -0.012952377
0.037018187 0.032499947 -0.012929183
0.039085563 0.032499943 -0.013012955
0.040569592 0.032354083 -0.012971809
0.042991437 0.032499935 -0.013011693
0.044884875 0.032447353 -0.0129404
-0.044852458 -0.032448746 -0.010971339
-0.042944368 -0.03249998 -0.010953377
-0.041045554 -0.032285359 -0.010964726
-0.038842227 -0.03249998 -0.010982145
-0.036668979 -0.032330137 -0.011035669
-0.034848902 -0.0321084 -0.011065996
-0.033023577 -0.032499947 -0.011004706
-0.031002905 -0.032499962 -0.011013856
-0.028452763 -0.032086775 -0.011045191
-0.026750844 -0.032399055 -0.011132472
-0.025027618 -0.032499954 -0.010945906
-0.022973124 -0.032499958 -0.010991427
-0.021040756 -0.032499962 -0.011021509
-0.019046707 -0.032499973 -0.010951946
-0.016961526 -0.032499958 -0.010978509
-0.014867846 -0.032499369 -0.0110514
-0.012995073 -0.032499932 -0.011036252
-0.0106978 -0.032440633 -0.01104709
-0.0088301105 -0.032403119 -0.011027879
-0.0069635753 -0.032441426 -0.011142423
-0.0049660439 -0.032499954 -0.011026389
-0.002996631 -0.032499958 -0.010963633
-0.00098078849 -0.032499962 -0.01099429
0.0010494841 -0.032499969 -0.010872412
0.0030310028 -0.032499958 -0.010934463
0.0050056819 -0.032499962 -0.011017152
0.0067245793 -0.032499425 -0.011061303
0.0090332963 -0.032499969 -0.010996056
0.01098275 -0.032499958 -0.011108237
0.012855559 -0.032075543 -0.011011084
0.014843443 -0.032479271 -0.011040274
0.017012078 -0.032499973 -0.011020022
0.018924685 -0.032499973 -0.011082229
0.021015005 -0.03249995 -0.010970151
0.023007346 -0.032499962 -0.010971638
0.025042582 -0.032499947 -0.010985531
0.02696632 -0.032499962 -0.010941425
0.02873306 -0.032491274 -0.011044757
0.030681204 -0.032261733 -0.011051917
0.032924388 -0.03249995 -0.010951711
0.034994986 -0.032499965 -0.010957394
0.036916964 -0.032499958 -0.010975619
0.038055461 -0.031831592 -0.011133363
0.040745553 -0.032145433 -0.010997515
0.04296888 -0.032499954 -0.011000564
0.044936478 -0.032447554 -0.011005512
-0.045499928 -0.030979995 -0.011040059
0.045499913 -0.030964633 -0.010963365
-0.045066644 -0.029025454 -0.011051608
0.044965278 -0.02905752 -0.010957265
-0.04492398 -0.027093221 -0.011049906
0.045385942 -0.026846133 -0.01111001
-0.045499917 -0.024994954 -0.010977603
0.045499913 -0.024998367 -0.011061884
-0.045499917 -0.023020217 -0.011011308
0.045499939 -0.02299008 -0.010894922
-0.045499902 -0.020947168 -0.011004502
0.045499913 -0.021032618 -0.010907121
-0.045499925 -0.018967085 -0.011059336
0.045499917 -0.018969404 -0.011009608
-0.04549991 -0.017063947 -0.010982681
0.045499917 -0.016973125 -0.011012247
-0.045499906 -0.014917815 -0.010972109
0.04503772 -0.015024506 -0.011016057
-0.045499925 -0.013067471 -0.011082564
0.045499921 -0.012961758 -0.010981339
-0.0453084 -0.011073407 -0.01102668
0.04549991 -0.011039481 -0.011041055
-0.045160953 -0.0088085737 -0.011038838
0.045499932 -0.008978257 -0.011045451
-0.045499913 -0.0070738024 -0.011022208
0.04549991 -0.0069746384 -0.011041208
-0.045164786 -0.0048814723 -0.01102598
0.045394771 -0.0050374786 -0.011036973
-0.045499913 -0.0029457184 -0.010948722
0.045499925 -0.0030429249 -0.01096322
-0.045499913 -0.0010441376 -0.010961832
0.045055997 -0.001153057 -0.011002582
-0.045499913 0.00099242933 -0.010934307
0.045499913 0.0010184762 -0.010913983
-0.045499921 0.0030316021 -0.011002446
0.04549991 0.0030208395 -0.010991401
-0.045499932 0.0049394127 -0.010959712
0.04549991 0.0050311424 -0.010997809
-0.045499928 0.0070234793 -0.011015394
0.045499921 0.0069278274 -0.010921236
-0.045133691 0.0088696172 -0.011015193
0.045261096 0.0089165308 -0.011118189
-0.045499913 0.011006935 -0.010998684
0.045259792 0.010674819 -0.011077242
-0.045429114 0.013135721 -0.011059225
0.045499921 0.012834116 -0.010958612
-0.045499913 0.015057927 -0.01102668
0.04549991 0.015066206 -0.010943033
-0.045499921 0.017021611 -0.010929411
0.045172717 0.016847378 -0.011051566
-0.045499902 0.018995175 -0.011042058
0.045499913 0.018973418 -0.010911777
-0.045237374 0.020730512 -0.010963937
0.045499939 0.021015363 -0.010961685
-0.045064427 0.022731487 -0.010980916
