# .PCD v0.7 - Point Cloud Data file format
VERSION 0.7
FIELDS x y z
SIZE 4 4 4
TYPE F F F
COUNT 1 1 1
WIDTH 1225
HEIGHT 1
VIEWPOINT 0 0 0 1 0 0 0
POINTS 1225
DATA ascii
0.016684376 -0.024691302 -0.0092573818
0.018593794 -0.025012171 -0.0092396084
0.021036722 -0.024974851 -0.0092661241
0.022996252 -0.025012448 -0.0092446553
0.024849247 -0.024785923 -0.0089921365
-0.072489165 -0.023028817 -0.0089598875
-0.07078933 -0.023842167 -0.0099130115
-0.06886337 -0.023828633 -0.0099207424
-0.067063361 -0.023844542 -0.0099116554
-0.065003827 -0.023858499 -0.0099036805
-0.063028514 -0.023826115 -0.0099221757
-0.061082043 -0.023852834 -0.0099069178
-0.059007932 -0.023855196 -0.0099055693
-0.056759208 -0.023811184 -0.0099307075
-0.055041354 -0.023828521 -0.0099208038
-0.053090014 -0.023845991 -0.0099108294
-0.050375238 -0.023840213 -0.0099134985
-0.048970956 -0.023846544 -0.0099105127
-0.046840187 -0.023826865 -0.0099217482
-0.045007508 -0.023832517 -0.009918523
-0.041352991 -0.022710947 -0.010043094
-0.04114525 -0.023856223 -0.0099049853
-0.038953871 -0.023825703 -0.0099224169
-0.037168205 -0.023848161 -0.009909587
-0.03489935 -0.023838965 -0.0099148396
-0.032967083 -0.023843426 -0.0099122925
-0.030887201 -0.023861015 -0.0099022463
-0.02896511 -0.023871087 -0.0098964954
-0.027081393 -0.023828046 -0.0099210748
-0.024884442 -0.023849189 -0.0099090021
-0.022963481 -0.023846976 -0.009910265
-0.021125009 -0.023870926 -0.0098965885
-0.018853093 -0.02382037 -0.0099254623
-0.017109495 -0.023864768 -0.0099001024
-0.014954215 -0.023866104 -0.0098993415
-0.012886935 -0.023848001 -0.0099096792
-0.010896661 -0.023823164 -0.0099238632
-0.0089304382 -0.023834579 -0.0099173449
-0.0070133209 -0.023838881 -0.0099148862
-0.0049954648 -0.023843855 -0.0099120466
-0.0030868382 -0.023844982 -0.009911404
-0.00087924668 -0.023847464 -0.0099099874
0.0011286502 -0.023823973 -0.0099234032
0.0029347064 -0.023832791 -0.0099183666
0.0050366693 -0.023854094 -0.0099062016
0.006895327 -0.023848185 -0.0099095749
0.0090213325 -0.02386013 -0.0099027548
0.011079576 -0.023838565 -0.0099150678
0.012985582 -0.023845965 -0.0099108424
0.015075507 -0.023841484 -0.0099134026
0.017110577 -0.023826649 -0.0099218739
0.0189333 -0.023863668 -0.0099007338
0.02106097 -0.023862446 -0.0099014314
0.022977805 -0.023841225 -0.0099135507
0.025369067 -0.022960657 -0.0090934001
-0.071634486 -0.020764623 -0.0090405941
0.025616731 -0.020999759 -0.0089670783
-0.072500162 -0.019008873 -0.0089835627
0.025785863 -0.018955542 -0.0090214992
0.026003193 -0.018052261 -0.008008373
-0.072482154 -0.017089093 -0.0090286685
0.02590568 -0.017165136 -0.0093067531
0.02605918 -0.016640302 -0.0085077919
-0.072500169 -0.014951064 -0.0090518203
0.025987852 -0.015868541 -0.0098086698
0.026105963 -0.014990188 -0.0090041403
-0.072500154 -0.013010033 -0.0089457231
0.026365282 -0.012890083 -0.0089272391
-0.072500162 -0.011010481 -0.0089740129
0.026979461 -0.011119499 -0.0090985252
0.029037081 -0.010893529 -0.009049789
0.030961875 -0.010896954 -0.009045599
0.032596022 -0.010752411 -0.0091018528
0.034971807 -0.010972573 -0.0089530759
0.036714286 -0.010901083 -0.0090152677
0.038714051 -0.010959117 -0.0090065338
0.040965885 -0.010920909 -0.0090162857
0.042872939 -0.010824705 -0.0090535022
0.044391591 -0.010705925 -0.0089571252
-0.072500162 -0.0089648413 -0.0090266839
0.045515586 -0.0090542017 -0.0090099284
-0.071984075 -0.0068802712 -0.0090750027
0.045644648 -0.0069362517 -0.0090046348
-0.072500162 -0.0049413587 -0.0089631453
0.04574427 -0.0049997931 -0.008990638
-0.072500162 -0.0030641775 -0.0088993749
0.04566111 -0.0030945584 -0.0090004206
-0.072500162 -0.0010262185 -0.0090024993
0.045852315 -0.00092373573 -0.0090728402
-0.072500154 0.00099334086 -0.0089588864
0.045860007 0.00096912152 -0.008984494
-0.072500154 0.0031042006 -0.0089659095
0.045814 0.0029900509 -0.009050902
-0.072500154 0.0050011394 -0.0089677023
0.045748141 0.0049696611 -0.0089578554
-0.072500162 0.0069976519 -0.0089828158
0.045645501 0.0069734985 -0.0089613264
-0.072377227 0.0089752721 -0.0090793474
0.045521833 0.0089611514 -0.0090143802
-0.071976788 0.010845783 -0.0089964299
0.026857832 0.011054993 -0.0091334218
0.029091917 0.010965831 -0.0089613209
0.030395307 0.01086215 -0.0089721661
0.032883774 0.01074184 -0.0090604201
0.034996778 0.010871376 -0.0090768952
0.03662106 0.010800088 -0.0089741917
0.039037529 0.01096615 -0.0089609399
0.041026995 0.010972505 -0.0089531559
0.042961203 0.010946451 -0.0089850314
0.044970747 0.010796678 -0.0088674277
-0.072500169 0.013025086 -0.0090070413
0.026369004 0.013067554 -0.0089944694
-0.072500154 0.014938869 -0.0089402273
0.026201492 0.014928798 -0.0090170922
-0.072500162 0.016986815 -0.0090436805
0.025935331 0.01738096 -0.0094618034
0.02586603 0.016384913 -0.0087079406
-0.072270058 0.018951228 -0.0090422332
0.025832623 0.019045021 -0.0089595309
0.026004612 0.018069146 -0.0080263112
-0.072500154 0.021019967 -0.0089709163
0.025642427 0.021059154 -0.0090045994
-0.072486624 0.023046745 -0.0090246964
-0.071088359 0.023868201 -0.0098981448
-0.069166102 0.023851041 -0.0099079404
-0.066934846 0.023846546 -0.0099105099
-0.064912759 0.023860732 -0.0099024093
-0.063159995 0.023846162 -0.0099107316
-0.060982741 0.023830237 -0.009919825
-0.05879724 0.023835478 -0.0099168299
-0.057089563 0.023841452 -0.0099134203
-0.054955993 0.023809254 -0.0099318102
-0.053114798 0.023837212 -0.0099158417
-0.050954346 0.023868641 -0.0098978933
-0.048917323 0.023839856 -0.0099143321
-0.046896648 0.023848178 -0.0099095767
-0.045025185 0.023873614 -0.00989505
-0.041867703 0.022934675 -0.010050864
-0.04106145 0.02383611 -0.0099164695
-0.038885865 0.023838814 -0.0099149225
-0.037007041 0.023849381 -0.0099088904
-0.034866817 0.023853354 -0.0099066235
-0.033184886 0.02384937 -0.0099088959
-0.031052565 0.02382379 -0.0099235075
-0.028763622 0.023855388 -0.0099054631
-0.027108004 0.023828506 -0.0099208085
-0.025028095 0.023836739 -0.0099161118
-0.022962349 0.023833062 -0.0099182129
-0.021810036 0.022777606 -0.0099948999
-0.018856803 0.023848169 -0.0099095823
-0.017412882 0.023355607 -0.010073334
-0.014987404 0.023831952 -0.0099188453
-0.012967546 0.023834854 -0.0099171894
-0.011114968 0.023838671 -0.0099150082
-0.0088439835 0.023838909 -0.0099148713
-0.0069317161 0.02384338 -0.0099123204
-0.0048918249 0.02383884 -0.0099149132
-0.0030195902 0.023853257 -0.0099066785
-0.00097068126 0.023837702 -0.0099155596
0.0010854114 0.023847023 -0.0099102361
0.0031027254 0.023843177 -0.0099124368
0.0050080167 0.02383065 -0.0099195903
0.0069857608 0.023812041 -0.0099302167
0.0089263273 0.023857309 -0.009904366
0.010961186 0.023865554 -0.0098996582
0.012924684 0.023865284 -0.009899809
0.014872213 0.023846846 -0.0099103367
0.017139185 0.023835372 -0.0099168951
0.019052513 0.023838649 -0.0099150212
0.02108063 0.02385756 -0.0099042188
0.02298028 0.02385526 -0.0099055357
0.025074007 0.022827461 -0.0090566091
-0.071738683 0.024619114 -0.0089711314
-0.070888996 0.024979591 -0.0092458157
-0.068821013 0.024956536 -0.0092455465
-0.067033932 0.024954826 -0.0092775589
-0.065019019 0.024938302 -0.0092870034
-0.063052788 0.024857678 -0.0092501231
-0.06098197 0.025050336 -0.009223016
-0.059019495 0.025000341 -0.0092515619
-0.056983829 0.02499947 -0.0092520695
-0.054692399 0.024957977 -0.0092545161
-0.053042263 0.025045667 -0.0092256926
-0.051032148 0.024991294 -0.0092567345
-0.048794467 0.024816656 -0.0092579648
-0.047007769 0.025010906 -0.0092455363
-0.045024484 0.024962239 -0.0092733297
-0.0429499 0.02499976 -0.0092519047
-0.040848453 0.024953648 -0.0092660272
-0.03902673 0.024779586 -0.0092767095
-0.0368792 0.02479705 -0.0092695104
-0.034634896 0.024805127 -0.009279645
-0.032636493 0.024839465 -0.0092523182
-0.030979134 0.025021572 -0.0092394445
-0.028991086 0.024980133 -0.0092631113
-0.026994528 0.024931932 -0.0092906468
-0.025055952 0.024991568 -0.0092565846
-0.022934299 0.024965664 -0.009271374
-0.020998385 0.025006885 -0.0092478348
-0.019030746 0.024976393 -0.0092652487
-0.017021602 0.024972828 -0.0092672808
-0.01498163 0.024975158 -0.0092659593
-0.01300025 0.024988344 -0.0092584239
-0.011083043 0.024960203 -0.009251195
-0.0089968164 0.02499553 -0.0092543177
-0.006743853 0.024900123 -0.0092746578
-0.0050214306 0.024959711 -0.0092747817
-0.0029874342 0.025036316 -0.0092310263
-0.0013797991 0.024662536 -0.0093025118
0.0010468764 0.025019795 -0.0092404559
0.0030228861 0.02497774 -0.0092644738
0.0048492379 0.02487983 -0.0092927767
0.0070435377 0.024993265 -0.0092556151
0.0090261195 0.024992684 -0.0092559438
0.010995449 0.024953013 -0.0092786001
0.012677591 0.025076658 -0.0092067001
0.014993737 0.024967855 -0.0092701241
0.016943062 0.02473668 -0.0092801936
0.01898111 0.025011091 -0.0092454311
0.020672467 0.024978131 -0.0092638275
0.023035105 0.024958584 -0.0092754196
0.024965325 0.024969229 -0.0089363884
-0.072355777 0.02645744 -0.0083152223
-0.070874736 0.026337352 -0.0084447656
-0.068095952 0.025731398 -0.0084325336
-0.06693697 0.026491286 -0.0083791381
-0.065027438 0.02650197 -0.0083696172
-0.062956117 0.026261013 -0.0084126685
-0.060635421 0.0261399 -0.0084134126
-0.058961947 0.026517946 -0.0083584366
-0.056973837 0.026545145 -0.008343515
-0.055042356 0.026530787 -0.0083539607
-0.052884851 0.026486669 -0.0083835637
-0.050899375 0.02654819 -0.00833961
-0.048806176 0.026347302 -0.0084143542
-0.047134776 0.026515326 -0.0083606578
-0.045024015 0.026458677 -0.00839948
-0.043036174 0.026532229 -0.00834597
-0.041079741 0.026511081 -0.0083643617
-0.039347947 0.026295317 -0.0084338877
-0.036998641 0.026473377 -0.0083910245
-0.035031684 0.026511518 -0.0083643952
-0.033049382 0.026509505 -0.0083643747
-0.031019075 0.026541848 -0.0083458461
-0.029040052 0.026297918 -0.0084082028
-0.027040167 0.026476175 -0.0083877891
-0.025286311 0.026267476 -0.0084134005
-0.022998687 0.026475787 -0.0083845155
-0.020924466 0.026519066 -0.0083612958
-0.018944953 0.026520995 -0.0083572399
-0.017056864 0.026503563 -0.0083684819
-0.014932647 0.026535103 -0.0083498368
-0.013300856 0.026522117 -0.0083546061
-0.011091353 0.026526626 -0.008354499
-0.0089629237 0.026169805 -0.0084219333
-0.0069179377 0.026454881 -0.0084013594
-0.0051034507 0.026224703 -0.0084039634
-0.0029860837 0.026540462 -0.0083471844
-0.001035177 0.026530266 -0.0083522946
0.0010125078 0.026538352 -0.0083465921
0.003037412 0.026477959 -0.0083863921
0.0050910655 0.026130021 -0.0083732354
0.0070222174 0.026507026 -0.008367083
0.0090134824 0.026524976 -0.0083534122
0.010436336 0.026527101 -0.00835332
0.012941481 0.02653043 -0.0083520403
0.014527841 0.026501032 -0.0083719529
0.017001772 0.02649574 -0.0083759977
0.019048251 0.026495293 -0.0083750645
0.020990707 0.026545702 -0.0083435532
0.023023803 0.026462618 -0.0083955573
0.024706552 0.02645951 -0.0083570946
-0.072366513 -0.028501896 -0.0064652362
-0.070941061 -0.028683517 -0.0065123984
-0.068223171 -0.028259544 -0.0066106687
-0.066965863 -0.028639378 -0.0065511148
-0.064691819 -0.028397573 -0.0065669944
-0.062960751 -0.028670117 -0.0065241531
-0.060960963 -0.028582036 -0.0066014198
-0.058912452 -0.028649785 -0.0065419944
-0.057017613 -0.028603287 -0.0065827672
-0.055008955 -0.02863287 -0.0065568248
-0.053028904 -0.028597187 -0.0065881209
-0.051090676 -0.028642869 -0.0065480438
-0.048600957 -0.028585842 -0.0065862094
-0.047030881 -0.028652575 -0.006539538
-0.045018584 -0.028614705 -0.0065727555
-0.043053757 -0.028631719 -0.0065578278
-0.041023795 -0.028607152 -0.0065793893
-0.038691852 -0.028670898 -0.0065206932
-0.036999583 -0.028600371 -0.0065853349
-0.034920666 -0.028606387 -0.0065800524
-0.032718129 -0.028262492 -0.0066116233
-0.03097558 -0.028644586 -0.0065465495
-0.029084921 -0.028662466 -0.0065308684
-0.027046239 -0.028632276 -0.0065573398
-0.025055604 -0.028606312 -0.0065801167
-0.023094682 -0.028666295 -0.006527503
-0.020868018 -0.028539136 -0.0065929387
-0.018731982 -0.028592745 -0.0065773786
-0.016981255 -0.028651109 -0.0065408256
-0.014988234 -0.028663829 -0.0065296656
-0.013298082 -0.028270619 -0.0066112289
-0.011001068 -0.028645288 -0.006545933
-0.0089619718 -0.028695429 -0.0065019554
-0.006935847 -0.028638039 -0.0065522846
-0.0050209896 -0.028623367 -0.0065651615
-0.0030192868 -0.028638145 -0.0065522026
-0.0010393932 -0.02859669 -0.006588568
0.0010680364 -0.028678155 -0.0065170922
0.0029822621 -0.028625431 -0.0065633547
0.0049733692 -0.028669549 -0.0065246536
0.0064703245 -0.028434759 -0.0066152825
0.0089686802 -0.028571315 -0.0066108326
0.011011934 -0.028621875 -0.0065664649
0.013012012 -0.028687663 -0.0065087546
0.015011807 -0.028603746 -0.0065823765
0.016998624 -0.028644113 -0.0065469579
0.018985847 -0.028656796 -0.0065358425
0.019895144 -0.028488372 -0.0066124089
0.02301278 -0.028651372 -0.00654059
0.024742343 -0.028557435 -0.0065537887
-0.071901552 -0.02692502 -0.0070485515
-0.070980519 -0.027507327 -0.007543812
-0.068443827 -0.027301466 -0.0076131593
-0.067031667 -0.027459048 -0.0075865518
-0.06498611 -0.027511869 -0.0075402153
-0.063005604 -0.027443623 -0.0076000853
-0.06093232 -0.027517317 -0.0075354273
-0.058592644 -0.027312048 -0.0075808028
-0.056986041 -0.027486628 -0.0075623621
-0.05508624 -0.027446466 -0.007597581
-0.052920796 -0.027458632 -0.0075869118
-0.05095138 -0.027516505 -0.0075361449
-0.049005385 -0.02753067 -0.0075237174
-0.047069866 -0.027498908 -0.007551576
-0.044044271 -0.026993496 -0.0075804587
-0.043040846 -0.027479345 -0.0075687375
-0.041079912 -0.027481375 -0.0075669531
-0.039006267 -0.02747109 -0.0075759836
-0.037036259 -0.027504627 -0.0075465646
-0.034979846 -0.027458481 -0.0075870487
-0.0330077 -0.027514601 -0.0075378157
-0.0309352 -0.027540574 -0.0075150253
-0.028923729 -0.027392214 -0.0076139979
-0.026972881 -0.027522987 -0.0075304676
-0.025055116 -0.027530737 -0.0075236587
-0.023079973 -0.026917737 -0.0076407283
-0.020781497 -0.02738029 -0.0076197181
-0.018989483 -0.027503911 -0.0075471965
-0.017082436 -0.027496995 -0.0075532584
-0.014908591 -0.027472628 -0.0075746421
-0.013036455 -0.027450485 -0.0075940667
-0.011011994 -0.027501125 -0.0075496375
-0.0090160426 -0.027459094 -0.0075865146
-0.0069317017 -0.027523834 -0.0075297141
-0.0049767825 -0.027486881 -0.0075621298
-0.0033563005 -0.027394433 -0.0076047904
-0.0010629342 -0.027484188 -0.0075644972
0.0010061107 -0.027533403 -0.0075213239
0.0029711605 -0.027055293 -0.0075906496
0.0045041405 -0.027329599 -0.0076304171
0.0068512987 -0.027123274 -0.0075485604
0.0088478969 -0.02737675 -0.0075999331
0.011021777 -0.027167266 -0.0076107597
0.013045872 -0.027454693 -0.0075903619
0.014992529 -0.027503684 -0.0075473934
0.017010663 -0.027517812 -0.0075350003
0.018966986 -0.027490402 -0.0075590415
0.020898869 -0.027517449 -0.0075347708
0.022974582 -0.02744852 -0.0075957864
0.025142893 -0.027098572 -0.0070935683
-0.072500162 -0.024941495 -0.0069270739
0.02548402 -0.024955926 -0.0070055262
-0.072015487 -0.022825824 -0.0070077139
0.025596321 -0.022757338 -0.0070741703
-0.072500162 -0.021042852 -0.0070540956
0.024908151 -0.020707725 -0.0069946125
-0.072321638 -0.018816082 -0.007121746
0.025941642 -0.019232772 -0.0071923812
0.026038229 -0.018466413 -0.0066563874
-0.072500169 -0.016940791 -0.0070237522
0.026149822 -0.016957216 -0.0069615245
-0.072500162 -0.015037271 -0.0070762043
0.026314147 -0.015043608 -0.0070325071
-0.072500154 -0.012992947 -0.0069578383
0.026805738 -0.012912503 -0.0069077066
0.028987616 -0.01240986 -0.0068031331
0.031020977 -0.012425797 -0.0067732097
0.033040509 -0.012420929 -0.0067823478
0.035026439 -0.012393408 -0.0068340404
0.036976311 -0.01243905 -0.006748314
0.039067436 -0.012433889 -0.006757996
0.040686466 -0.012526228 -0.0067311688
0.042931851 -0.0124236 -0.0067773196
0.044750277 -0.012281409 -0.0067532575
-0.072245657 -0.011052361 -0.0070857066
0.027228408 -0.011910478 -0.0077508548
0.029031791 -0.011873469 -0.0078054266
0.030951522 -0.011883095 -0.0077883392
0.032949045 -0.011881262 -0.0077916346
0.034931064 -0.011892305 -0.0077721165
0.036225386 -0.011481631 -0.007924512
0.039067991 -0.01187378 -0.0078059514
0.04093007 -0.011894716 -0.0077665146
0.043097328 -0.01188399 -0.0077872379
0.04534211 -0.011146253 -0.007203632
-0.071999565 -0.0091351466 -0.0070399046
0.045646559 -0.0089402692 -0.006963037
-0.072500154 -0.0069945469 -0.0070938696
0.045777626 -0.0069843214 -0.0070344708
-0.072500162 -0.0050034933 -0.006957137
0.045895193 -0.0050020604 -0.0070390571
0.046008229 -0.0042425734 -0.0061049168
-0.072500162 -0.0030424451 -0.0069827619
0.045106925 -0.0033424604 -0.0073886001
0.046036832 -0.0028090887 -0.0065199416
-0.072500154 -0.0010009425 -0.0069642155
0.045971923 -0.0011707199 -0.0077267294
0.04607819 -0.00096921739 -0.0066446275
-0.072205044 0.00098063156 -0.0069970218
0.045971833 0.0011034365 -0.0077321613
0.046073817 0.00094703905 -0.0066684526
-0.072500154 0.0029004435 -0.0069811516
0.045956321 0.0031250555 -0.0073388624
0.045093801 0.0025437239 -0.0065952041
-0.072500162 0.0049683866 -0.0069855205
0.045892958 0.005082367 -0.0070134038
0.046008196 0.004077123 -0.006226222
-0.072500162 0.0070577059 -0.0069596698
0.045782574 0.0069613992 -0.0069835517
-0.071902663 0.0089158779 -0.0070542917
0.045636129 0.0090331146 -0.0070272181
-0.072316729 0.010849312 -0.0070386603
0.027256096 0.011878067 -0.0078021176
0.029007066 0.01187111 -0.007811856
0.030963046 0.011877862 -0.00779843
0.033016134 0.01188705 -0.007781866
0.035026386 0.011877156 -0.007797665
0.036994632 0.011893 -0.0077712368
0.03900056 0.011887937 -0.0077806283
0.0410298 0.011876853 -0.0078020627
0.04302885 0.011889641 -0.0077787722
0.045385998 0.011082769 -0.0070629935
-0.072018988 0.01302876 -0.0071039759
0.026750518 0.012760839 -0.0069809575
0.028977893 0.012401914 -0.0068180687
0.03051918 0.012315958 -0.0067859399
0.033085782 0.012402078 -0.0068177488
0.035042167 0.012370563 -0.0068769394
0.037056293 0.012440205 -0.0067461357
0.039064597 0.012286976 -0.0068098046
0.040940091 0.01242316 -0.0067781555
0.043002702 0.012425666 -0.0067734388
0.044877976 0.012364659 -0.0067573646
-0.072500154 0.015051451 -0.0069980933
0.026343111 0.014935316 -0.0070243604
-0.072500154 0.017051158 -0.006986775
0.02617687 0.01702542 -0.0069616446
-0.072500162 0.019001355 -0.0069978531
0.025956221 0.019355431 -0.0073363697
0.026058909 0.018646784 -0.0067221043
-0.072500162 0.021047466 -0.0070018638
0.025658589 0.020834237 -0.0069280304
-0.07214243 0.023040893 -0.0070171324
0.025395449 0.023042114 -0.0070835836
-0.072340287 0.024809737 -0.0070016184
0.025503861 0.025001513 -0.0070008654
-0.072243311 0.026840826 -0.0070906789
-0.070915096 0.02752558 -0.0075281868
-0.069056578 0.02743873 -0.0075829676
-0.067015223 0.027500706 -0.0075500021
-0.065100327 0.027520981 -0.0075322208
-0.063006289 0.027027128 -0.0075563919
-0.060978152 0.027367482 -0.0076059997
-0.059060842 0.027491312 -0.0075582475
-0.057029858 0.027473304 -0.007574047
-0.053997315 0.027185023 -0.0076360223
-0.052926194 0.027486891 -0.0075621242
-0.051053591 0.027513133 -0.0075391089
-0.048975483 0.027436011 -0.0076067587
-0.046932969 0.027510753 -0.007541188
-0.045078937 0.027444839 -0.0075990101
-0.042978581 0.027538067 -0.0075172298
-0.040923193 0.027494339 -0.00755559
-0.038926706 0.027510704 -0.0075412309
-0.036814418 0.027238498 -0.0075994018
-0.034998566 0.027519362 -0.0075336406
-0.03289786 0.027457012 -0.0075883376
-0.0309023 0.027524112 -0.007529465
-0.029006852 0.027110459 -0.0075781527
-0.027026635 0.027559049 -0.0074988226
-0.024980992 0.027487194 -0.0075618587
-0.023035739 0.027457932 -0.0075875241
-0.021015899 0.027496699 -0.0075535262
-0.019049149 0.027493307 -0.007556492
-0.017284986 0.027384287 -0.0075987964
-0.014845633 0.027239181 -0.00760285
-0.012952818 0.027494429 -0.007555516
-0.011116262 0.02745471 -0.0075903558
-0.0090357382 0.027481785 -0.0075666001
-0.0070737959 0.02750133 -0.0075494582
-0.00502297 0.027501099 -0.0075496552
-0.0030013821 0.027484367 -0.0075643351
-0.00098891254 0.02751901 -0.0075339498
0.0010004445 0.027528362 -0.0075257472
0.0030679286 0.027523426 -0.0075300662
0.0047865077 0.027270792 -0.0075984639
0.0068543172 0.027264217 -0.0075690313
0.0090740016 0.027509429 -0.0075423485
0.010948364 0.027507395 -0.0075441333
0.013067265 0.027477786 -0.0075701065
0.015202437 0.027318249 -0.0075581633
0.016631015 0.02709304 -0.0075470535
0.019044546 0.027492916 -0.0075568389
0.020988896 0.027483286 -0.0075652874
0.022957603 0.027473506 -0.0075738635
0.024869941 0.02693524 -0.0071068234
-0.072379835 0.028520435 -0.0064397338
-0.071004249 0.028646424 -0.0065449299
-0.068996407 0.028644476 -0.0065466464
-0.066962257 0.028643666 -0.0065473537
-0.065044366 0.028588176 -0.0065960418
-0.062551394 0.028425237 -0.0066371039
-0.061082747 0.02789416 -0.0065856143
-0.059006218 0.028680045 -0.0065154475
-0.056756217 0.028564857 -0.0066094766
-0.055046573 0.028651861 -0.0065401639
-0.053008258 0.028629957 -0.0065593808
-0.050933957 0.028643919 -0.0065471395
-0.048674896 0.028501222 -0.0066247792
-0.046944767 0.02860293 -0.0065830895
-0.044966321 0.02864255 -0.0065483409
-0.043012947 0.028649721 -0.0065420391
-0.040864587 0.028291849 -0.0066505377
-0.038520727 0.028537799 -0.006563989
-0.036836356 0.028241102 -0.0066365073
-0.034944594 0.028660037 -0.0065329955
-0.032490604 0.028375901 -0.0066398229
-0.030960012 0.028613877 -0.006573481
-0.028720204 0.028536957 -0.0065996936
-0.027000682 0.028667977 -0.0065260227
-0.024824107 0.028579636 -0.0065913512
-0.022967625 0.02862794 -0.0065611424
-0.021017723 0.028627491 -0.0065615452
-0.019017905 0.028638395 -0.0065519833
-0.016618211 0.02838981 -0.0066081886
-0.014955959 0.028561484 -0.0065867505
-0.013008201 0.028660864 -0.0065322765
-0.010937309 0.028621376 -0.0065669119
-0.0089838095 0.028589202 -0.0065951324
-0.0070649474 0.028551301 -0.006628383
-0.0050433967 0.02866827 -0.0065257708
-0.0029815303 0.028633429 -0.0065563465
-0.00082271494 0.028531568 -0.0065643764
0.00101669 0.028655071 -0.006537349
0.0030131757 0.028611859 -0.0065752636
0.0048037306 0.028283412 -0.0065779458
0.0070203762 0.028633535 -0.0065562469
0.0089878254 0.028686199 -0.0065100417
0.011048533 0.028602269 -0.0065836655
0.012988767 0.028636908 -0.0065532895
0.014928375 0.028648609 -0.006543024
0.017014896 0.028623935 -0.0065646567
0.018953806 0.028616644 -0.0065710633
0.020994144 0.028631205 -0.0065582804
0.023057047 0.028655777 -0.0065367306
0.024796236 0.028589461 -0.0065043084
-0.072290257 -0.030267198 -0.0045928066
-0.071003377 -0.030354546 -0.0045183739
-0.068601064 -0.030127591 -0.0045982399
-0.067082003 -0.030325169 -0.0045637591
-0.064494185 -0.029947443 -0.0046261228
-0.062997125 -0.030325655 -0.0045630117
-0.061031673 -0.030356659 -0.0045150942
-0.058892664 -0.030355548 -0.004516813
-0.056980729 -0.030380137 -0.0044788131
-0.055030856 -0.030337604 -0.0045445403
-0.052660566 -0.03025726 -0.0046384623
-0.050918192 -0.030332977 -0.0045517003
-0.048880257 -0.030332502 -0.0045524416
-0.046745315 -0.030276706 -0.0045984592
-0.044509124 -0.030108457 -0.0046224892
-0.043023616 -0.030315833 -0.0045781741
-0.040997196 -0.030360509 -0.0045091286
-0.038955174 -0.030344851 -0.0045333495
-0.037019875 -0.030331807 -0.004553495
-0.034963761 -0.030330677 -0.0045552547
-0.032835681 -0.03007642 -0.0046285698
-0.030973008 -0.030320913 -0.0045703282
-0.028974241 -0.030335112 -0.0045484002
-0.026905235 -0.030365804 -0.0045009684
-0.02499502 -0.030321421 -0.0045695393
-0.023004847 -0.030352553 -0.0045214514
-0.021231428 -0.030168181 -0.0045921789
-0.019006887 -0.030354183 -0.0045189266
-0.017060088 -0.029875999 -0.0045615728
-0.014972216 -0.030351527 -0.0045230272
-0.013077145 -0.030364795 -0.0045025423
-0.011258773 -0.030310556 -0.0045414735
-0.0090133836 -0.030321633 -0.0045692194
-0.0067786826 -0.030227533 -0.0046452316
-0.0052525047 -0.029950898 -0.0046376982
-0.0034132213 -0.030003164 -0.0046380628
-0.00085606315 -0.030325573 -0.0045631249
0.0010791611 -0.030084103 -0.0045936909
0.0024759397 -0.030289296 -0.0045547942
0.0049827471 -0.030337537 -0.0045446539
0.0069952733 -0.0303465 -0.0045307898
0.0082428213 -0.030172853 -0.004632683
0.010986059 -0.030316418 -0.0045772819
0.012583065 -0.030198326 -0.0046015722
0.01501203 -0.030042624 -0.004672653
0.01560545 -0.029699463 -0.0047224201
0.018943718 -0.030323038 -0.0045670434
0.020666314 -0.030000214 -0.004648637
0.023026815 -0.030340478 -0.0045400993
0.024782173 -0.030349743 -0.0044616233
-0.072163269 -0.028869057 -0.0050720205
-0.070995741 -0.029640205 -0.0055843038
-0.068902776 -0.029626554 -0.0056053423
-0.067030668 -0.029686481 -0.0055219484
-0.063916244 -0.028866675 -0.0056914673
-0.062669337 -0.029558828 -0.0056262165
-0.060724903 -0.02930183 -0.0056048487
-0.059005275 -0.029672008 -0.0055383653
-0.056966726 -0.029659899 -0.0055625034
-0.055041697 -0.02966271 -0.0055560283
-0.05248281 -0.029211748 -0.0056094411
-0.050800901 -0.029429205 -0.0056520677
-0.049009368 -0.029673461 -0.0055423183
-0.046964608 -0.029683199 -0.0055324244
-0.045026947 -0.029638801 -0.0055808071
-0.043062758 -0.029675392 -0.0055385199
-0.041025005 -0.02962479 -0.0056055924
-0.038974751 -0.029645132 -0.0055754138
-0.037308268 -0.029520513 -0.0056145261
-0.03505696 -0.029687569 -0.005524144
-0.033028401 -0.029670393 -0.0055409209
-0.031030735 -0.029367011 -0.0056585092
-0.029314173 -0.029333279 -0.0055684666
-0.02700142 -0.029654836 -0.0055636913
-0.025059247 -0.029672176 -0.0055398704
-0.022972103 -0.02962802 -0.0056011202
-0.020976353 -0.029687654 -0.0055239433
-0.018917253 -0.029182022 -0.0055446108
-0.016923023 -0.02964114 -0.0055816006
-0.015040398 -0.02965503 -0.0055650366
-0.012583733 -0.029449906 -0.0056364397
-0.01153365 -0.029631849 -0.0055269175
-0.0089851124 -0.029659837 -0.0055539706
-0.0069092289 -0.029613245 -0.0055761486
-0.0050914283 -0.029679796 -0.0055344119
-0.0032943222 -0.029184943 -0.0055790585
-0.00096757832 -0.02966341 -0.0055556959
0.0010472448 -0.029640416 -0.0055875019
0.0025594255 -0.029459085 -0.0056331852
0.0050492985 -0.029677713 -0.0055388766
0.007079395 -0.029660299 -0.0055580875
0.0090029165 -0.029671906 -0.0055474406
0.010975018 -0.029649135 -0.0055737551
0.012990697 -0.029696582 -0.0055151512
0.014931113 -0.029685665 -0.0055266907
0.017078999 -0.029681951 -0.005532484
0.019096456 -0.029684052 -0.0055235187
0.021077741 -0.029679129 -0.0055351732
0.021996763 -0.029253699 -0.005730059
0.025116725 -0.029135512 -0.0051250872
-0.072500162 -0.027073923 -0.0049681696
0.02547222 -0.026915528 -0.0049998867
-0.072500154 -0.02505227 -0.0049284981
0.02561198 -0.025103183 -0.0050024702
-0.071944594 -0.022787191 -0.0050445679
0.025770204 -0.023052178 -0.0050813234
-0.072500169 -0.020954873 -0.0049894541
0.025930056 -0.021034585 -0.0050612614
0.026014261 -0.020167667 -0.0045839031
-0.072500169 -0.019020883 -0.0050010313
0.025995394 -0.019829102 -0.0058193495
0.025798157 -0.018889345 -0.005034599
-0.072500169 -0.017000306 -0.0049849688
0.026258031 -0.016951362 -0.0050005317
-0.072500162 -0.015002498 -0.0048989239
0.02557167 -0.014688502 -0.0051474893
-0.072500162 -0.013010128 -0.0049804053
0.027118297 -0.013333086 -0.0050172973
0.029007569 -0.013228419 -0.0050494969
0.031000243 -0.013259136 -0.0049642823
0.033029094 -0.013230551 -0.0050374656
0.034963232 -0.013138127 -0.0050711147
0.03705357 -0.013248342 -0.0049929689
0.039069429 -0.013251791 -0.004981535
0.041032035 -0.013249534 -0.0049953358
0.042762373 -0.012998499 -0.0051386636
0.045031212 -0.01296916 -0.0049354541
-0.072500169 -0.011080123 -0.0050226361
0.04558133 -0.010963344 -0.0049717329
-0.072500162 -0.0089535015 -0.0050332961
0.045143452 -0.0090863444 -0.005063775
-0.072500169 -0.0069983746 -0.004942039
0.045900211 -0.0069978316 -0.0049466509
0.04601191 -0.006130693 -0.0041249963
-0.071924932 -0.0050233454 -0.0050024274
0.045972891 -0.0054873396 -0.0055360561
0.046174403 -0.0046893945 -0.0046972483
0.048007883 -0.0046141418 -0.0042173918
0.05115379 -0.0040370729 -0.004060593
-0.072500147 -0.0029720336 -0.0050366139
0.046760507 -0.0031109683 -0.0051946663
0.048993152 -0.0029557899 -0.0049958867
0.05042091 -0.0029228753 -0.004846456
0.052998044 -0.0030796365 -0.0046401662
0.054937061 -0.0029076391 -0.0046278592
0.056989416 -0.0028177297 -0.0045577111
0.058977108 -0.0026989889 -0.0044991854
0.060949858 -0.0026220817 -0.0044193286
0.062918745 -0.0025264465 -0.004351025
0.064543165 -0.0023889891 -0.0042709024
-0.072500162 -0.00095308281 -0.0050302935
0.046372484 -0.0010291386 -0.0058828392
0.048981611 -0.0010197896 -0.0057253209
0.050954565 -0.0010687546 -0.0055993926
0.053085659 -0.0010280376 -0.0054828911
0.055021834 -0.0011082707 -0.0053573628
0.056847893 -0.0010602081 -0.0052967304
0.059035037 -0.0010100206 -0.0051402729
0.06100947 -0.0010338908 -0.0050177295
0.063062832 -0.0010111488 -0.0049046492
0.064406417 -0.00091446919 -0.004577795
0.06612891 -0.00056429184 -0.0040886658
-0.072500162 0.0010161912 -0.0050165951
0.046501905 0.0010183646 -0.0059028296
0.049050875 0.00099290896 -0.0057247248
0.050980277 0.00098952511 -0.0056146844
0.05304249 0.0010359349 -0.0054839528
0.054902025 0.0010498187 -0.0053873081
0.05699769 0.0010294284 -0.0052575208
0.05830346 0.00084626826 -0.005189172
0.060823221 0.0011598788 -0.0050347671
0.063007548 0.0010111027 -0.0049032159
0.064706393 0.0011207472 -0.0046127858
0.066137493 0.00039069442 -0.0041041314
-0.072500162 0.0030028215 -0.0049709231
0.046795111 0.003041005 -0.0052185259
0.047985848 0.0031049042 -0.0050291391
0.051035214 0.0030803755 -0.0047740452
0.052986097 0.0029538046 -0.004722618
0.055001386 0.0029151482 -0.0046203276
0.057028584 0.0028488506 -0.0045316853
0.05877541 0.0028119045 -0.0045049866
0.060942665 0.0026353681 -0.004412665
0.062913023 0.002587971 -0.0043196115
0.064543881 0.0024422402 -0.0042316262
-0.072500162 0.0049258485 -0.0049716723
0.045971654 0.0055462434 -0.0054970719
0.045972176 0.0047495831 -0.0047311136
0.04883486 0.0041483142 -0.0041288864
0.05081401 0.0040588682 -0.0040658461
-0.072500162 0.0070073321 -0.0049500884
0.045892246 0.0069878716 -0.0051075937
0.046011027 0.0061252201 -0.0041509317
-0.072108313 0.0088322051 -0.0050510368
0.045739733 0.0089881057 -0.0050572688
-0.072353028 0.010965461 -0.0050460929
0.045572929 0.010996304 -0.0051107495
-0.072500169 0.013004832 -0.0049638096
0.026985615 0.013346517 -0.0050929938
0.029036764 0.013227242 -0.005057402
0.030899264 0.013264783 -0.0050485185
0.032882269 0.013065062 -0.005066759
0.035047319 0.013237173 -0.005034354
0.037038397 0.013237468 -0.0050251875
0.038978763 0.013252168 -0.0049808049
0.040945746 0.013247921 -0.0050008157
0.04217549 0.013081917 -0.0050525777
0.04503011 0.012979698 -0.0049484121
-0.072250731 0.014830247 -0.0050768289
0.026420431 0.015026198 -0.004981623
-0.072500162 0.017067723 -0.0049521625
0.02586462 0.016800379 -0.0049547497
-0.072438955 0.018825153 -0.0050062472
0.025999505 0.019965839 -0.0057401331
0.025807999 0.019062323 -0.0050197849
-0.072500154 0.020986954 -0.0049831094
0.025929103 0.02126576 -0.0050664912
0.026023613 0.02039152 -0.0045279884
-0.072119102 0.02281329 -0.0049919481
0.025518751 0.022786889 -0.0049641654
-0.072500154 0.02499897 -0.0049702274
0.025637876 0.025026523 -0.0049155462
-0.072500169 0.026982937 -0.0049837758
0.025478549 0.02698658 -0.0049801636
-0.072464779 0.029026451 -0.0049944674
-0.070963398 0.029649854 -0.0055759884
-0.068947576 0.029660914 -0.0055575045
-0.066114925 0.028720308 -0.005662811
-0.065087415 0.029631516 -0.0055961432
-0.062308915 0.029196657 -0.0055853631
-0.061003804 0.029661773 -0.0055589341
-0.058951508 0.029626992 -0.0055994005
-0.057034172 0.029647022 -0.0055739395
-0.055052258 0.029662605 -0.0055565243
-0.052349236 0.029391047 -0.0056486377
-0.050980225 0.029653022 -0.0055697225
-0.049053289 0.029663095 -0.0055518998
-0.046982728 0.029667251 -0.0055517992
-0.045022629 0.029654989 -0.0055623818
-0.043009207 0.02968031 -0.0055312891
-0.040984478 0.029647011 -0.0055813338
-0.03900886 0.029652609 -0.00556859
-0.037017651 0.029650012 -0.0055719553
-0.034987822 0.029712474 -0.005488764
-0.033036854 0.029638343 -0.0055858106
-0.030982342 0.029625867 -0.0056028352
-0.028931232 0.029683717 -0.0055270009
-0.026980594 0.02967209 -0.0055435575
-0.024679968 0.028926693 -0.0057218964
-0.022516411 0.029517112 -0.0055393209
-0.020711184 0.029556807 -0.005620196
-0.018966177 0.0296463 -0.0055743586
-0.017039787 0.029644988 -0.005579548
-0.015141271 0.029090345 -0.0055671101
-0.013108523 0.029478842 -0.0056846025
-0.011015943 0.029660149 -0.0055545052
-0.0089646 0.029697025 -0.0055124499
-0.0073970533 0.029273052 -0.0056220759
-0.0050442275 0.029688649 -0.0055217831
-0.0039605419 0.029419564 -0.005560495
-0.0010632282 0.029673867 -0.0055380762
0.0010073232 0.029658487 -0.0055580819
0.0029850404 0.029652083 -0.0055674715
0.0049776966 0.029625138 -0.0056038713
0.0069439379 0.029658666 -0.0055608065
0.0088460036 0.02965997 -0.005558365
0.011009947 0.029658413 -0.0055685299
0.013026425 0.029700076 -0.005508279
0.015023119 0.029676436 -0.0055343974
0.016898558 0.029598041 -0.0056076371
0.018947102 0.029664043 -0.0055535464
0.021064008 0.029677263 -0.005535041
0.022839777 0.029640775 -0.0055823713
0.025127389 0.029038738 -0.0051935134
-0.072346225 0.030317357 -0.0044213599
-0.070988387 0.030336449 -0.0045463326
-0.068937875 0.030323314 -0.0045666387
-0.067070156 0.030373618 -0.0044888868
-0.064965695 0.029761437 -0.0045781843
-0.062775999 0.030320464 -0.0045513399
-0.060971364 0.03032976 -0.0045566759
-0.058503639 0.030101625 -0.0046501011
-0.056972474 0.030343922 -0.0045347721
-0.054943323 0.03032908 -0.0045577171
-0.052975759 0.030315703 -0.004578393
-0.050941851 0.030235494 -0.0045632566
-0.049029544 0.030350626 -0.0045244303
-0.04697305 0.030349117 -0.0045267604
-0.04501228 0.03030967 -0.0045877127
-0.043015599 0.030375067 -0.0044866507
-0.04078253 0.030301252 -0.0045839269
-0.038989693 0.030320715 -0.0045706467
-0.037049878 0.030349428 -0.0045262789
-0.035060108 0.030338595 -0.0045430236
-0.032955676 0.030359006 -0.0045114653
-0.031035438 0.030327149 -0.0045607067
-0.029044682 0.030379431 -0.00447992
-0.026979068 0.030328445 -0.0045587029
-0.024989596 0.03035772 -0.0045134574
-0.023070747 0.030271087 -0.0045771198
-0.021029618 0.030346485 -0.0045308275
-0.018515173 0.030150944 -0.0045774537
-0.016957747 0.030388074 -0.0044665411
-0.015114858 0.030353146 -0.0045205369
-0.013001231 0.029778145 -0.004548749
-0.01099385 0.030357914 -0.004513172
-0.008979083 0.030339362 -0.004541832
-0.0069084777 0.030266004 -0.0045729945
-0.0049837423 0.030320873 -0.0045703896
-0.0033147843 0.030066656 -0.0046271309
-0.00098749471 0.030340478 -0.0045401077
0.00051952945 0.029926525 -0.0046201502
0.0029451861 0.03034869 -0.0045274282
0.0049800267 0.030306054 -0.0045933044
0.0070142425 0.030349821 -0.0045256717
0.009000347 0.030335886 -0.0045472155
0.011079011 0.030337123 -0.0045452928
0.012943988 0.030339651 -0.0045413882
0.014968999 0.030354582 -0.004518305
0.016867924 0.030111013 -0.0046254578
0.018898608 0.030323645 -0.0045661195
0.020966651 0.030321132 -0.0045700003
0.02300223 0.030363802 -0.0045040729
0.024045132 0.029716875 -0.0045204689
-0.072434179 -0.030844647 -0.0029169915
-0.071060233 -0.031211894 -0.0030608994
-0.069030218 -0.031227658 -0.0030343591
-0.06687548 -0.030909607 -0.0031320117
-0.064971283 -0.031267066 -0.0029503598
-0.063019291 -0.031217208 -0.0030717617
-0.060627569 -0.031005684 -0.0031484014
-0.058601025 -0.031021124 -0.003106511
-0.05660627 -0.030826285 -0.0031631433
-0.055017285 -0.031027522 -0.00308539
-0.053044982 -0.031205507 -0.0030666217
-0.051000912 -0.031222489 -0.003060221
-0.048983973 -0.031232657 -0.0030226975
-0.046681527 -0.031084601 -0.0030929307
-0.044691093 -0.030693606 -0.0030600822
-0.04297892 -0.031234637 -0.0030077689
-0.040769547 -0.031233978 -0.0030157464
-0.038976714 -0.031236377 -0.003023451
-0.037069827 -0.031247836 -0.0029892868
-0.034939658 -0.031207403 -0.0030875031
-0.033050567 -0.03121428 -0.0030521618
-0.031037427 -0.031203266 -0.0030806602
-0.029011285 -0.031208158 -0.003081348
-0.027006233 -0.031196628 -0.003109334
-0.025097799 -0.031004867 -0.0031015689
-0.023035601 -0.031221408 -0.0030448707
-0.021214934 -0.03118182 -0.0030846065
-0.019013543 -0.031227382 -0.0030319921
-0.016871113 -0.030933976 -0.0030317162
-0.014975421 -0.031217376 -0.0030649514
-0.012801858 -0.030994587 -0.0030950492
-0.010967463 -0.031044381 -0.0030831753
-0.0089802286 -0.031238081 -0.0030021507
-0.0070621688 -0.031224381 -0.0030514272
-0.0049910904 -0.031242676 -0.0030006741
-0.0030219946 -0.031222779 -0.0030409829
-0.00082158874 -0.03115375 -0.0030206426
0.0010731616 -0.03123462 -0.0030351768
0.0028464182 -0.030701376 -0.0030812926
0.0050439415 -0.031142661 -0.0030686667
0.0069900504 -0.031220578 -0.0030496174
0.0090119736 -0.031207511 -0.0030707179
0.011102343 -0.03106956 -0.0030536079
0.013041551 -0.031165726 -0.0030382448
0.014979068 -0.031238262 -0.0030059963
0.016985169 -0.031223368 -0.0030447713
0.018982893 -0.03118846 -0.0030848996
0.020986216 -0.031221248 -0.003044934
0.022966141 -0.03118523 -0.0031282427
0.024979191 -0.030871363 -0.0029909865
-0.07235077 -0.028874021 -0.0030707114
0.024876507 -0.028820857 -0.0030493774
-0.072500169 -0.027004125 -0.0029646258
0.025558088 -0.026965376 -0.0029321187
-0.072409667 -0.024945341 -0.0030441289
0.025701562 -0.025034089 -0.0029756064
-0.072500147 -0.022997035 -0.0030362203
0.025856134 -0.022998951 -0.0029456175
-0.072500162 -0.020924967 -0.0029776986
0.025833683 -0.021355605 -0.0032798108
0.026043899 -0.020579286 -0.0028269531
-0.072174564 -0.018844914 -0.0030975866
0.025745783 -0.018783288 -0.0030352203
-0.072500147 -0.017038714 -0.0028845032
0.026308199 -0.017040612 -0.0030029702
-0.072500162 -0.015027493 -0.0029312149
0.026475169 -0.015028686 -0.002948296
0.029011495 -0.014004699 -0.0020521027
0.030719761 -0.014006203 -0.0020367606
0.033100609 -0.014005867 -0.0020401862
0.034861565 -0.014005634 -0.0020425573
0.037380159 -0.014004912 -0.0020499122
0.039175753 -0.014004627 -0.0020528471
0.041143309 -0.014006369 -0.00203507
0.043082811 -0.014004328 -0.0020558627
0.044634905 -0.014005298 -0.002045999
-0.072500169 -0.013041192 -0.002997908
0.027235942 -0.013827283 -0.0031395236
0.02897785 -0.013812661 -0.0031009563
0.030707844 -0.013611734 -0.0030878023
0.03296715 -0.013821393 -0.003077907
0.035032939 -0.013837997 -0.0030162863
0.037023872 -0.013832507 -0.003026217
0.038506445 -0.013596579 -0.0031236047
0.040584873 -0.013748149 -0.0031044653
0.042943321 -0.013839324 -0.0030062168
0.045044903 -0.013308894 -0.0030819811
-0.072500169 -0.01103056 -0.0030521203
0.045491528 -0.011123852 -0.0030195871
-0.072500162 -0.0089859851 -0.0029610423
0.04484133 -0.0088627879 -0.0030510579
-0.072500162 -0.0069913757 -0.0030109005
0.045951724 -0.0073743025 -0.0031058318
0.044984266 -0.0066193403 -0.0029013876
-0.072500154 -0.0049649328 -0.0030265364
0.046147749 -0.0052053574 -0.0031348893
0.048998486 -0.0049449611 -0.0030110129
0.051020641 -0.0048158094 -0.0029984864
0.052496035 -0.0047983346 -0.0029901757
0.054467104 -0.0044916719 -0.0029920172
0.056883764 -0.0044989474 -0.0028971268
0.059068091 -0.0044651395 -0.0027266564
0.061058167 -0.0043968884 -0.0026288815
0.061454948 -0.004369108 -0.0026914601
0.064561598 -0.0042528124 -0.0023583546
-0.072229855 -0.0028660898 -0.0030894766
0.053626604 -0.003949366 -0.0039478466
0.055153873 -0.0038747177 -0.0038905765
0.057073139 -0.0037987437 -0.0038016322
0.057764079 -0.0039242906 -0.0038024653
0.061034296 -0.0036400931 -0.0036246649
0.063170895 -0.0035493786 -0.0035309449
0.065084606 -0.0032249845 -0.0032785621
0.066755489 -0.0026717382 -0.0026432942
0.068151295 -0.0021520129 -0.0021627848
-0.072500147 -0.00097266963 -0.0029669537
0.065855049 -0.0017598969 -0.0038933463
0.067079552 -0.0010653655 -0.0034158842
0.06883996 -0.00089816342 -0.0024719606
0.070035055 -0.00020787556 -0.002036876
-0.072500154 0.001026106 -0.0030194914
0.065846935 0.0019241022 -0.0038180053
0.06649024 0.0011864695 -0.0035415539
0.068828449 0.00084949919 -0.0024957263
0.070024863 0.00032660124 -0.0020253649
-0.072500162 0.0029795489 -0.0030835629
0.053621352 0.003929853 -0.0039682006
0.055116992 0.0038946713 -0.0038751238
0.057159796 0.0038407533 -0.0037518328
0.059039537 0.0037249147 -0.0037097149
0.05971311 0.0037313753 -0.0037585965
0.062637448 0.0036279841 -0.0036207975
0.064861387 0.0031592557 -0.0032618199
0.065955676 0.0022999893 -0.0027140011
0.068144649 0.0021502716 -0.002166416
-0.072500162 0.0049917116 -0.0030213629
0.046795711 0.0051969979 -0.0031175422
0.048979405 0.0049097026 -0.003067099
0.050992027 0.0048135635 -0.0030099992
0.052442167 0.0045785778 -0.003051922
0.054841954 0.0045908759 -0.0029870584
0.057011593 0.0045245313 -0.002847173
0.059016295 0.0044513163 -0.0027561332
0.059725747 0.0042146207 -0.0027457802
0.062159657 0.0040615019 -0.0026902219
0.064541496 0.0042737979 -0.0023423161
-0.072500154 0.0070816856 -0.0029960282
0.045945324 0.0074410331 -0.0031172307
0.046043321 0.0064819534 -0.0026748527
-0.072500154 0.0089557469 -0.0030465808
0.045810305 0.0090295626 -0.0030772819
-0.072500169 0.01099677 -0.0029475857
0.045635518 0.011033226 -0.003017769
-0.07167583 0.012862189 -0.0031478934
0.027200017 0.013838246 -0.003077744
0.029040834 0.013823855 -0.003064102
0.030990275 0.013814458 -0.003091322
0.03259429 0.013645958 -0.0030580102
0.035047658 0.013833039 -0.003030411
0.036488704 0.013782614 -0.0030883006
0.038680911 0.013652083 -0.0031871619
0.041054141 0.013828119 -0.0030563856
0.043124307 0.013762225 -0.0030889222
0.045107886 0.013227068 -0.003025041
-0.071965195 0.014939161 -0.0031076423
0.026611654 0.014858117 -0.0030030012
0.029156711 0.01400429 -0.002056275
0.030913748 0.014005107 -0.0020479406
0.033185016 0.014004985 -0.0020491767
0.034695871 0.014006048 -0.0020383452
0.037205908 0.014003698 -0.0020622998
0.038875777 0.01400404 -0.002058812
0.040812809 0.014005663 -0.0020422805
0.043205034 0.014003715 -0.0020621174
0.044348728 0.01400496 -0.0020494384
-0.072116084 0.017090045 -0.0030138351
0.02632107 0.016962454 -0.0030314538
-0.072500169 0.019011732 -0.0030833578
0.02604112 0.018839069 -0.0030425631
-0.072221123 0.020907022 -0.0030564477
0.025969625 0.021605967 -0.0030493916
0.026046548 0.020597676 -0.0030085573
-0.072500162 0.023063146 -0.0029531969
0.025343237 0.022847116 -0.0030177948
-0.072500169 0.024959642 -0.0029875445
0.025712246 0.025032843 -0.002951548
-0.072500162 0.026985353 -0.0030363614
0.025555491 0.027075645 -0.0029873142
-0.072500154 0.028992588 -0.0029909518
0.025403745 0.029029669 -0.0030479718
-0.072421074 0.030856382 -0.0029988373
-0.070955187 0.031215103 -0.0030588722
-0.068864644 0.03097943 -0.0030063312
-0.067028597 0.03123641 -0.0030086231
-0.064650647 0.031008048 -0.003107775
-0.062972568 0.031231249 -0.0030317376
-0.060050488 0.030918449 -0.0031196985
-0.059021782 0.031204997 -0.0030695712
-0.056641236 0.030921899 -0.0031081007
-0.05439461 0.030954272 -0.0031331908
-0.052993584 0.031233795 -0.0030067619
-0.051019672 0.031233661 -0.0030103577
-0.049039308 0.030921159 -0.0030521248
-0.046504676 0.031021353 -0.0030691714
-0.044952959 0.031246517 -0.0030003903
-0.043076403 0.031239411 -0.0030032652
-0.040667396 0.031064304 -0.0031044476
-0.038670573 0.030994778 -0.0030381598
-0.037022706 0.031215649 -0.0030594915
-0.034828208 0.031249339 -0.002983425
-0.032999322 0.03101375 -0.0030633362
-0.031181803 0.031219238 -0.0030524887
-0.028994994 0.031235659 -0.0030063621
-0.027008906 0.031232858 -0.0030256077
-0.024979059 0.031175595 -0.003144867
-0.022944445 0.031234195 -0.0030161147
-0.020987866 0.031208612 -0.0030645998
-0.019003311 0.031239979 -0.0030079009
-0.017046558 0.030889843 -0.0031098227
-0.014841738 0.031077746 -0.0031520647
-0.013146787 0.031120563 -0.0031421969
-0.0108534 0.031077046 -0.0030717615
-0.0089676781 0.031215936 -0.003067435
-0.0070024282 0.031223362 -0.00303274
-0.0050270935 0.031079197 -0.0030930697
-0.0031744987 0.031235978 -0.002999943
-0.00085317332 0.031173283 -0.0030708329
0.0009978473 0.031193763 -0.0030942592
0.0029585764 0.0305764 -0.0031880052
0.0049893968 0.030967368 -0.0029902791
0.0067711663 0.030969717 -0.0030791829
0.008962702 0.031219052 -0.0030484907
0.010741866 0.031063054 -0.0031297882
0.013016504 0.031228943 -0.0030338147
0.014966993 0.031012088 -0.0030724532
0.017026598 0.031207008 -0.0030706252
0.018763801 0.031193081 -0.0030732376
0.021051783 0.031175405 -0.002990233
0.022951417 0.031246765 -0.0029908733
0.024929503 0.030889673 -0.003015196
-0.072436668 -0.031095527 -0.00098784349
-0.071044818 -0.031797934 -0.00096137496
-0.069009572 -0.031788256 -0.0010074353
-0.06653396 -0.031668425 -0.0011555154
-0.06497246 -0.031792048 -0.00098942197
-0.062871926 -0.031633254 -0.0010831773
-0.061011486 -0.031788033 -0.0010085334
-0.058645699 -0.031527191 -0.0010329953
-0.056761168 -0.031803083 -0.00093040668
-0.055072676 -0.031609356 -0.0010703799
-0.053032052 -0.03178633 -0.0010165966
-0.050986826 -0.031800527 -0.0009490535
-0.049004957 -0.031795993 -0.00097064534
-0.046613146 -0.031480093 -0.0009820282
-0.045024488 -0.03179032 -0.00099764718
-0.042997573 -0.031512354 -0.0010006073
-0.04101783 -0.031770609 -0.0010913395
-0.038993716 -0.031773001 -0.0010800017
-0.037178256 -0.031569969 -0.0010277735
-0.035041932 -0.031489678 -0.0010361422
-0.033149902 -0.031526376 -0.0009805318
-0.030974172 -0.031788982 -0.001003975
-0.029019162 -0.031803392 -0.00093543384
-0.027107324 -0.031529363 -0.0010874718
-0.025117937 -0.031760208 -0.00099123421
-0.023036346 -0.031794332 -0.00097848556
-0.020944057 -0.031793263 -0.00098360202
-0.018969154 -0.031786945 -0.0010136794
-0.016515166 -0.031382885 -0.0010731219
-0.015032551 -0.031804424 -0.00093047548
-0.012924882 -0.031762052 -0.0010833768
-0.010976788 -0.031792395 -0.00098777201
-0.0089305127 -0.031794656 -0.00097698718
-0.0066309501 -0.031601347 -0.0010069699
-0.0050450936 -0.031789143 -0.0010032371
-0.0030018133 -0.031781897 -0.0010377261
-0.0010508593 -0.031802058 -0.00094174407
0.0010263477 -0.031797178 -0.00096507184
0.0029972282 -0.031778067 -0.0010559055
0.0050001601 -0.031785186 -0.0010220056
0.0068370942 -0.031671491 -0.0010478571
0.0091583179 -0.031566478 -0.00099525775
0.010738123 -0.031622026 -0.00096910389
0.012983886 -0.031787541 -0.0010108086
0.014708932 -0.030899117 -0.0011288454
0.016991161 -0.031772874 -0.001080598
0.019016236 -0.031784438 -0.0010255842
0.02097562 -0.031778645 -0.0010530585
0.023020323 -0.031803288 -0.00093591068
0.024574112 -0.030924181 -0.0010933513
-0.072500162 -0.028983833 -0.0010132751
0.025436658 -0.029061226 -0.001014264
-0.072500162 -0.027012505 -0.0010257249
0.025592593 -0.026961822 -0.0010239695
-0.072500154 -0.025027303 -0.0010668793
0.025737759 -0.025016749 -0.00099335797
-0.072500169 -0.022966446 -0.00093616074
0.02567219 -0.022964567 -0.0010875529
-0.072500154 -0.020967416 -0.0010037513
0.02598107 -0.02173843 -0.0010942826
0.025598587 -0.020480022 -0.00095707999
-0.072500162 -0.018975502 -0.0010264639
0.026191426 -0.018961195 -0.00094552443
-0.072500147 -0.016982445 -0.00097224017
0.026334835 -0.017048668 -0.00099075492
-0.071903385 -0.01487656 -0.0010179697
0.026633056 -0.014611777 -0.0010399091
0.028926764 -0.014100877 -0.0010716823
0.030866846 -0.013944567 -0.0010641003
0.033026986 -0.014098183 -0.001099074
0.035003439 -0.014102571 -0.0010544282
0.037004843 -0.014112668 -0.0009514743
0.038564514 -0.014126027 -0.0010509305
0.040509906 -0.014112126 -0.001133132
0.042913485 -0.013931866 -0.0011332016
0.044792496 -0.014110923 -0.00091061037
-0.072500169 -0.012944889 -0.0010307195
0.044736296 -0.012826924 -0.001134522
-0.072053634 -0.010873236 -0.001038617
0.045617878 -0.010924843 -0.00097574911
-0.07239715 -0.009151577 -0.00098010607
0.04585116 -0.0090345368 -0.0010499631
-0.072500162 -0.0070190541 -0.0010419749
0.045974199 -0.0076798433 -0.0010740387
0.04606409 -0.0067079691 -0.00096971233
-0.072500162 -0.0050117876 -0.00093334651
0.046906602 -0.005882855 -0.0011050707
0.049028687 -0.0056931213 -0.0010432993
0.05033632 -0.0057182033 -0.0011856091
0.052255679 -0.0052184337 -0.0011373394
0.054975003 -0.0053529562 -0.0010371422
0.057004191 -0.0052305674 -0.001024959
0.058585186 -0.0050675068 -0.0010232206
