# .PCD v0.7 - Point Cloud Data file format
VERSION 0.7
FIELDS x y z
SIZE 4 4 4
TYPE F F F
COUNT 1 1 1
WIDTH 1254
HEIGHT 1
VIEWPOINT 0 0 0 1 0 0 0
POINTS 1254
DATA ascii
0.064999945 0.01494517 -0.0029695434
-0.064724684 0.016881309 -0.0031269346
0.064999938 0.017011633 -0.0030041633
-0.064999968 0.019064501 -0.002958196
0.06500002 0.019000534 -0.0029455323
-0.06499999 0.020980718 -0.0030826998
0.0644226 0.020727795 -0.0030843709
-0.064757682 0.023050513 -0.003031644
0.064999945 0.023040388 -0.0030143843
-0.064999968 0.025014214 -0.0028921769
0.064496621 0.024878904 -0.0031481693
-0.06371323 0.026577709 -0.0031452647
-0.063060991 0.027499968 -0.002954487
-0.060962159 0.027499963 -0.0030071188
-0.058940299 0.027499977 -0.0030914948
-0.057069603 0.027499964 -0.0029624745
-0.054428637 0.027222717 -0.0031030888
-0.051704288 0.02715227 -0.0032263843
-0.050644528 0.027496777 -0.0030766963
-0.049017292 0.02749997 -0.0030840016
-0.046990842 0.027499963 -0.0030364655
-0.04500876 0.027499964 -0.0030135436
-0.043028202 0.027499964 -0.0029008752
-0.038543347 0.026576584 -0.0034145641
-0.039203212 0.027293658 -0.0030012445
-0.036969628 0.027499963 -0.0029902067
-0.034390435 0.027499964 -0.0030737969
-0.032825742 0.027154474 -0.003040961
-0.031106645 0.02728365 -0.003141823
-0.029154781 0.027305536 -0.0030531806
-0.027020112 0.027499977 -0.0029175044
-0.025084088 0.027499977 -0.0029818451
-0.022998653 0.027499964 -0.0030405908
-0.020468758 0.027050417 -0.0031787672
-0.018923663 0.027499974 -0.0029413616
-0.017000312 0.027499964 -0.0030204875
-0.015003763 0.027499963 -0.0029668368
-0.013251805 0.027218314 -0.0030592822
-0.010941924 0.027499994 -0.0029651804
-0.0090876678 0.027499977 -0.0029346079
-0.0069562211 0.027499964 -0.003046941
-0.0049153985 0.027424037 -0.003056176
-0.0030403745 0.027499964 -0.0029639541
-0.0010154648 0.027499964 -0.0029662601
0.00071930053 0.027333058 -0.0031508852
0.0029792865 0.027499964 -0.0029959136
0.0047030952 0.027138093 -0.0030992411
0.0070921825 0.027499964 -0.0029793556
0.0087241801 0.027481144 -0.0031154971
0.011002827 0.027154064 -0.0029743542
0.012917547 0.027483946 -0.0031339386
0.015363815 0.027076893 -0.0030415077
0.016955506 0.027499966 -0.0030678206
0.018568823 0.027394589 -0.0031222627
0.020936016 0.027499968 -0.0030038089
0.022475738 0.02711802 -0.0031297149
0.024990827 0.027499964 -0.0029402943
0.027002042 0.027499966 -0.002995139
0.029087584 0.027499964 -0.0029669476
0.031015245 0.027499966 -0.0030025877
0.032987207 0.027499977 -0.0030325884
0.035007808 0.027499964 -0.0029377718
0.036938246 0.027499977 -0.003039967
0.038979951 0.027499964 -0.0030357805
0.040962152 0.027499989 -0.002974065
0.043011121 0.027499963 -0.0029776292
0.044970632 0.027499963 -0.0028472173
0.047104813 0.027499968 -0.0030686753
0.049018282 0.027499963 -0.003031183
0.051033914 0.027499963 -0.0029842565
0.052922439 0.027499968 -0.0030371977
0.055053122 0.027499968 -0.0030113598
0.056983128 0.027499968 -0.0029170869
0.058988191 0.027499963 -0.0030022773
0.060928173 0.027499963 -0.0029395816
0.063020028 0.027499964 -0.002945608
0.064790331 0.027094802 -0.0030140134
-0.064737946 -0.026802359 -0.00095190835
-0.063046344 -0.027173689 -0.0010140272
-0.060501244 -0.026781013 -0.0011042864
-0.058963597 -0.027499977 -0.00095576269
-0.056904707 -0.027499966 -0.00089439412
-0.055105425 -0.027290892 -0.000975859
-0.052552663 -0.027499635 -0.0011014264
-0.050536003 -0.027309654 -0.0011219521
-0.048966724 -0.027499966 -0.00092812482
-0.046945073 -0.027499963 -0.0011078927
-0.044963632 -0.02749997 -0.00096989202
-0.042987093 -0.027499966 -0.00085381372
-0.041015185 -0.027499966 -0.00098620099
-0.038961187 -0.027499968 -0.0009648038
-0.036997501 -0.027499964 -0.00094952347
-0.035203923 -0.027292786 -0.0010064066
-0.032778777 -0.027311863 -0.0010788778
-0.030962901 -0.027499963 -0.00093017292
-0.028526559 -0.027218532 -0.0011953271
-0.027022587 -0.027499972 -0.0010436134
-0.024945537 -0.027499977 -0.00095898012
-0.02298617 -0.027499964 -0.0010708027
-0.021033857 -0.027499985 -0.00098887796
-0.019087894 -0.027499985 -0.0010897514
-0.017057439 -0.027499974 -0.0010253866
-0.015345345 -0.027228631 -0.0011484484
-0.013011312 -0.027499966 -0.0010031565
-0.0095580751 -0.025798574 -0.0013138498
-0.0092387544 -0.027042525 -0.0011903092
-0.0073823538 -0.027294617 -0.0010788256
-0.0049588648 -0.027499963 -0.0011115705
-0.0030488081 -0.027499985 -0.00096771307
-0.0013758441 -0.027158365 -0.0010303789
0.0010282048 -0.027499963 -0.00097650074
0.002922982 -0.027499963 -0.0010611303
0.0050010164 -0.027499964 -0.00097589323
0.0071924678 -0.027499977 -0.001003042
0.0095344484 -0.026496595 -0.0010440514
0.010955551 -0.02749997 -0.00094895973
0.013097893 -0.027499963 -0.0010300069
0.015006007 -0.02749997 -0.001037594
0.016517049 -0.027499989 -0.0010447517
0.019078016 -0.027499963 -0.00091950654
0.020365871 -0.027497817 -0.0011157468
0.022999104 -0.027499963 -0.00098495337
0.02496996 -0.027499963 -0.00098243938
0.026880674 -0.027499966 -0.00097862701
0.028379051 -0.027138889 -0.00096503616
0.030445654 -0.027248265 -0.00097170845
0.033049408 -0.027499981 -0.0010140934
0.035065103 -0.027499998 -0.00098699413
0.036817137 -0.02717465 -0.0012099188
0.039027084 -0.027499964 -0.0010312295
0.040463544 -0.027499963 -0.00096405321
0.042676251 -0.027313534 -0.001059306
0.044420101 -0.0273991 -0.0010807862
0.047105987 -0.027284635 -0.0010268969
0.04874333 -0.0273946 -0.0010844751
0.050951749 -0.027499989 -0.0011235722
0.052430682 -0.02687024 -0.0012749721
0.05502988 -0.027499976 -0.00096330658
0.056838982 -0.027463926 -0.0011107714
0.059025086 -0.027499981 -0.00094024109
0.061006106 -0.027499968 -0.0010877238
0.062921934 -0.027499977 -0.0011543261
0.064797506 -0.027037768 -0.00097478548
-0.064580269 -0.02503904 -0.0011095431
0.065000035 -0.024977459 -0.0011037491
-0.0643709 -0.022753015 -0.0010456356
0.065000035 -0.023015432 -0.0010892692
-0.064212725 -0.020820482 -0.001168421
0.064999953 -0.021020913 -0.00099702948
-0.065000005 -0.01901016 -0.0010156784
0.06498611 -0.018650571 -0.0010108335
-0.064940788 -0.016804434 -0.0012358256
0.064680137 -0.017145302 -0.0011752221
-0.06500005 -0.014910697 -0.00097505684
0.064207487 -0.015003895 -0.0010771733
-0.064999968 -0.012982671 -0.0010465113
0.064750828 -0.013031152 -0.0011142746
-0.065000027 -0.010983019 -0.00091124489
0.06499996 -0.01099171 -0.0010289447
-0.064355694 -0.0091072526 -0.0010374848
0.064867392 -0.0088404398 -0.0011109984
-0.065000027 -0.0069893235 -0.00096358784
0.064098135 -0.00670572 -0.0011579756
-0.06499999 -0.0050218478 -0.001019901
0.064710692 -0.0051660198 -0.001072242
-0.064457059 -0.003111023 -0.0011926591
0.064103432 -0.0030838524 -0.0010648734
-0.064643838 -0.00098355033 -0.0010924751
0.065000005 -0.00096610689 -0.00096514291
-0.064999983 0.0010539329 -0.00097650773
0.064999975 0.00098651706 -0.0010161279
-0.064999968 0.0029517484 -0.0010112418
0.064999908 0.0029430776 -0.00097768614
-0.06499996 0.0049964646 -0.0010364465
0.064771906 0.0046828641 -0.0011988794
-0.064316027 0.0067925076 -0.0010704491
0.06500002 0.0070018256 -0.0010263417
-0.065000005 0.008941628 -0.0011168682
0.06500002 0.0089927493 -0.00095998187
-0.065000013 0.010993504 -0.0010297728
0.064999893 0.010915041 -0.0010759644
-0.063638501 0.012920359 -0.0012762122
0.064999953 0.012984525 -0.0010210468
-0.064040177 0.014800389 -0.0012734435
0.064999916 0.014933588 -0.00099588663
-0.065000005 0.017021475 -0.0010208311
0.06499996 0.017051324 -0.0010434
-0.064999983 0.018948253 -0.0011201411
0.064783908 0.018771546 -0.0010990129
-0.065000013 0.020971283 -0.0010127079
0.064999945 0.020990673 -0.001021364
-0.065000005 0.023060465 -0.00094144157
0.064319655 0.022775382 -0.0010551036
-0.064999975 0.024954243 -0.0010337087
0.064999968 0.025000997 -0.0009938929
-0.064769417 0.027067112 -0.00098650006
-0.062208395 0.027261488 -0.0010425097
-0.060031731 0.026962679 -0.0011391632
-0.058976151 0.027499964 -0.0010325767
-0.05708256 0.027167981 -0.00094308821
-0.053797524 0.027351128 -0.0011520806
-0.053006072 0.027499989 -0.0010253977
-0.050666567 0.027244711 -0.0012296803
-0.049013432 0.027406055 -0.0010352051
-0.046802215 0.027392888 -0.0010791863
-0.045030184 0.027499968 -0.00099930912
-0.042991955 0.027499976 -0.001031729
-0.040960602 0.02740398 -0.00106415
-0.038548052 0.027197447 -0.0011430284
-0.036063246 0.026938945 -0.0012848848
-0.034961648 0.027499964 -0.0010057462
-0.032956842 0.027499974 -0.0010018521
-0.031002594 0.027499977 -0.00097893318
-0.02853879 0.027118286 -0.0011366027
-0.026512818 0.027174544 -0.0010903382
-0.025012946 0.027499979 -0.00098918786
-0.023106256 0.027158365 -0.0010377442
-0.02103894 0.027499976 -0.00094869221
-0.01896253 0.027499966 -0.00099944044
-0.017049449 0.027499964 -0.0010776197
-0.014930032 0.027499968 -0.00097230356
-0.013011892 0.027499964 -0.0010614964
-0.010693272 0.026990933 -0.0012590685
-0.0090174899 0.027499977 -0.00098960917
-0.0069469865 0.027499963 -0.00097062951
-0.0049848258 0.027499964 -0.0010653037
-0.0029938458 0.027499983 -0.00088127411
-0.0013230217 0.027498042 -0.0010458439
0.00043838102 0.02749997 -0.0011557522
0.0029766047 0.027499966 -0.0010934715
0.004989644 0.027499968 -0.0010129756
0.0070686461 0.027499985 -0.0011126717
0.008964994 0.027499974 -0.00098175916
0.010990659 0.027499964 -0.0010188755
0.013083149 0.027499974 -0.0010460198
0.01494922 0.027499966 -0.0010497662
0.016991444 0.027499979 -0.0010288281
0.019033406 0.027499968 -0.001049023
0.02048197 0.027498465 -0.0010880328
0.022629842 0.02724991 -0.0011100252
0.024952153 0.027499963 -0.00099145703
0.026786316 0.027499963 -0.0010064392
0.02893002 0.027499964 -0.00098063226
0.030658666 0.027499977 -0.00096099987
0.032893535 0.02749997 -0.0010266179
0.034943759 0.027499963 -0.0010134419
0.036539655 0.027482063 -0.0011014304
0.038938228 0.02730207 -0.0010546318
0.040616848 0.027342908 -0.0010751751
0.042961959 0.027499966 -0.00098904478
0.044239022 0.027302651 -0.001165615
0.047037616 0.027499963 -0.0010321194
0.049037855 0.027499979 -0.0009980693
0.050897282 0.027465699 -0.0011297199
0.052353553 0.027499963 -0.0010301329
0.05502953 0.027229151 -0.0011339459
0.055595409 0.027268656 -0.0011321794
0.058165353 0.027403532 -0.001109497
0.06021155 0.027408151 -0.0011462604
0.062950976 0.027499974 -0.0010498416
0.064292409 0.026736951 -0.0010695275
-0.064824007 -0.026982933 0.00105802
-0.062967837 -0.027499964 0.0010111906
-0.061016634 -0.027499964 0.00094048475
-0.058141038 -0.027092559 0.00080154947
-0.057038669 -0.027499976 0.0010030118
-0.055037308 -0.027499964 0.00093215168
-0.052251402 -0.027498389 0.00088317489
-0.050929498 -0.02749997 0.0010015516
-0.048601415 -0.027107118 0.00072576269
-0.047091972 -0.027499974 0.0010180185
-0.04424518 -0.027499966 0.0009280715
-0.042488575 -0.027457951 0.00081057951
-0.040974151 -0.027499968 0.00098079222
-0.039017703 -0.027499974 0.00091206003
-0.036437962 -0.026683083 0.00052140176
-0.035032328 -0.027499963 0.0010201175
-0.033024568 -0.027499964 0.0010309402
-0.031094527 -0.027499966 0.00099930947
-0.029035011 -0.027499963 0.00099544378
-0.026920009 -0.027499966 0.0010537221
-0.02495506 -0.027499968 0.0010217102
-0.023032112 -0.027499977 0.0010609205
-0.020936737 -0.027499972 0.00097348675
-0.018964233 -0.027499963 0.00099340605
-0.017140368 -0.027499964 0.0010436741
-0.015012298 -0.027499981 0.0009337067
-0.012965285 -0.027499964 0.0010220228
-0.011001408 -0.027499968 0.0010025152
-0.0085455384 -0.027083304 0.00096346781
-0.006963559 -0.027499974 0.001018443
-0.0050325519 -0.02749997 0.0010563711
-0.0029410964 -0.027499966 0.0010655238
-0.00095660571 -0.027499963 0.00094410672
0.0010414218 -0.027499976 0.00099175191
0.0030628713 -0.027499964 0.00097955205
0.0046079941 -0.027336536 0.00083086436
0.0066129547 -0.02722894 0.00073551055
0.0090384595 -0.027499974 0.0009569453
0.011229082 -0.027104283 0.0010396797
0.01242926 -0.027346281 0.00092091988
0.014996498 -0.027499972 0.001037319
0.016912168 -0.027147865 0.00084571063
0.019047542 -0.027499963 0.0010072495
0.021028517 -0.027499968 0.0010134844
0.022905977 -0.027499974 0.001065453
0.024961645 -0.027499963 0.0010452103
0.027028693 -0.027499963 0.001020798
0.028953219 -0.027499968 0.0010580901
0.031031916 -0.027499974 0.00097395468
0.03302421 -0.027412003 0.0009460721
0.034589883 -0.027481565 0.00086940598
0.036494847 -0.02749997 0.0010061059
0.038981259 -0.02749997 0.0010932646
0.040226512 -0.027317898 0.00092125346
0.042184338 -0.027244922 0.00090933242
0.044990011 -0.027499998 0.0010014502
0.046622742 -0.027272372 0.00080395344
0.049033016 -0.027353732 0.00097804656
0.051003922 -0.027499963 0.00089339784
0.05281207 -0.027333025 0.00076757779
0.054991622 -0.027499974 0.00095855939
0.056995392 -0.027499963 0.0010734921
0.058992226 -0.027499983 0.001008168
0.06024551 -0.02728262 0.00076749176
0.063061342 -0.027499968 0.00098203344
0.064685978 -0.026825679 0.00088457006
-0.064986624 -0.024955036 0.00089825969
0.06499552 -0.024843236 0.00098355056
-0.064999975 -0.022905117 0.00092110445
0.064761646 -0.022863159 0.00086446333
-0.064919494 -0.020692803 0.00088208169
0.065000035 -0.021019248 0.0010974209
-0.065000005 -0.019050758 0.00088415132
0.064999953 -0.018974684 0.00097466004
-0.064078011 -0.01693151 0.0010149522
0.065000005 -0.017086508 0.0010350759
-0.06500002 -0.01489533 0.001014458
0.064322926 -0.015123308 0.0010034002
-0.064266555 -0.012865935 0.00089307089
0.064224117 -0.013181931 0.00086861185
-0.064194128 -0.010665679 0.00086232793
0.064999953 -0.011009068 0.0010319345
-0.064999975 -0.0090243863 0.0010307736
0.065000035 -0.0089912657 0.00094904087
-0.064999968 -0.0070037153 0.00097534701
0.064240448 -0.0070767123 0.00096950174
-0.065000035 -0.0050569456 0.00095962285
0.065000035 -0.0050092996 0.00090061949
-0.063445002 -0.0029418748 0.00080238795
0.064999931 -0.0029898814 0.0010621771
-0.0642488 -0.0011180784 0.0009010238
0.064999975 -0.0011457995 0.0010117036
-0.064999916 0.0010330024 0.0010212164
0.064750813 0.00081817433 0.00079999812
-0.064999968 0.0029773109 0.00097280857
0.06499999 0.0030227548 0.00089239539
-0.06488166 0.0050198231 0.00089561561
0.064802639 0.0050719171 0.00094681751
-0.064999945 0.0069256066 0.0010009839
0.065000035 0.0070910323 0.0010890323
-0.065000027 0.0090269772 0.00090185885
0.064998694 0.0090682292 0.0010289397
-0.065000027 0.010910125 0.0010781299
0.064999945 0.010994791 0.0010432546
-0.064986318 0.012688586 0.00096613105
0.06363979 0.012848208 0.000667357
-0.064999953 0.01490787 0.00097806635
0.064697348 0.015067945 0.00098303088
-0.064999968 0.017012557 0.00098141318
0.06500005 0.01702928 0.0010624729
-0.06499996 0.019066619 0.00100287
0.064999968 0.018973924 0.0010275792
-0.064748615 0.020792352 0.00080937042
0.065000013 0.021052431 0.0010848161
-0.065000035 0.022978326 0.00099431642
0.064999975 0.022977762 0.0010094582
-0.06499999 0.024996916 0.0010239355
0.064999998 0.02501989 0.00099392445
-0.064808361 0.027059631 0.00098879251
-0.063044146 0.027203731 0.0010326338
-0.061121911 0.027499964 0.0010304746
-0.058775619 0.027483031 0.00089155883
-0.056951996 0.027499977 0.00096308067
-0.055075131 0.027499974 0.00099829491
-0.05292986 0.02712721 0.00092737621
-0.051096667 0.027288562 0.00091976498
-0.048896383 0.02749997 0.0010432578
-0.046983596 0.027499964 0.00089303881
-0.04502112 0.027499974 0.0010671973
-0.042942286 0.02749997 0.0010235409
-0.041008141 0.027499968 0.0010247231
-0.038974483 0.027499974 0.0010054481
-0.036369637 0.027441956 0.0008788273
-0.035044923 0.027499963 0.0010552269
-0.032910328 0.027115351 0.0010012882
-0.03115423 0.027272671 0.00098978332
-0.029270744 0.027324686 0.00090544269
-0.026970625 0.027499968 0.0010121432
-0.024974294 0.027499964 0.00092248921
-0.022284672 0.027438547 0.0010037888
-0.020989122 0.027499964 0.00098588516
-0.019034807 0.027499964 0.0010273561
-0.016964298 0.027499964 0.0010039174
-0.014599653 0.02711802 0.0010724813
-0.013063138 0.027497558 0.0010347676
-0.01072439 0.027089519 0.00093062851
-0.0090178773 0.027499964 0.00091800262
-0.0069084242 0.027499963 0.0010365803
-0.0046911696 0.027497968 0.00094749144
-0.0031633666 0.027242998 0.00087607693
-0.0012436038 0.027397383 0.00095983036
0.00098995527 0.02749997 0.00094709505
0.0030634347 0.02749997 0.0010183464
0.0049626059 0.027499979 0.00098498631
0.0071018254 0.027163222 0.00091917173
0.008944598 0.0274585 0.00090588431
0.011051434 0.027083304 0.0010141667
0.013056341 0.02719244 0.00081913109
0.015043921 0.027499963 0.001037183
0.016532836 0.02741917 0.00077610102
0.019287949 0.027410623 0.00089393079
0.021008359 0.027499966 0.0010539312
0.022986071 0.0275 0.0010618736
0.024999704 0.027499963 0.0010712442
0.026838435 0.027128393 0.00090846274
0.029169558 0.027163099 0.00088675995
0.030768229 0.027294332 0.00086738868
0.032961588 0.027499966 0.00098217966
0.034957536 0.027154064 0.00092810101
0.036989514 0.027499964 0.0010035123
0.038958631 0.027301528 0.00082604279
0.040657591 0.02749921 0.00097669894
0.042970825 0.027499981 0.0010139263
0.044947442 0.027499979 0.00098671252
0.046888605 0.027499977 0.00099112955
0.049039446 0.027499966 0.00091903639
0.050973441 0.027499963 0.00097617495
0.052913785 0.027499996 0.0010018608
0.055060226 0.027499998 0.0010748372
0.056953192 0.027499968 0.0010569012
0.057447508 0.027037222 0.00065585488
0.060773768 0.027499964 0.00094951899
0.063017026 0.027499983 0.0010507858
0.06382031 0.0269222 0.00087442499
-0.064784497 -0.027111946 0.0029871173
-0.062253579 -0.027176021 0.0029332268
-0.060962114 -0.02749997 0.0030682483
-0.058631644 -0.027133301 0.0030255502
-0.056293625 -0.027367055 0.0028857493
-0.054320943 -0.027163977 0.0029538993
-0.052883323 -0.027302027 0.0027783941
-0.051036835 -0.027176458 0.002832263
-0.049050555 -0.027499976 0.0030092597
-0.0462666 -0.026856873 0.0027815157
-0.044223431 -0.02719306 0.0029494097
-0.042867016 -0.027117798 0.002916551
-0.04095763 -0.027499964 0.0029419386
-0.038123786 -0.027143868 0.0027745699
-0.037051678 -0.027499963 0.0029414725
-0.03503133 -0.027499966 0.0029803147
-0.032527782 -0.02712829 0.0028806739
-0.030639902 -0.027101416 0.0029252341
-0.029242504 -0.027499963 0.0028901403
-0.027021596 -0.027499989 0.003003784
-0.024993105 -0.027499963 0.0029852139
-0.022987908 -0.027499976 0.0029958815
-0.021012614 -0.02701004 0.0027144414
-0.018992806 -0.027499964 0.0029875964
-0.017113736 -0.027294446 0.0027743864
-0.014998131 -0.027499985 0.0028718656
-0.012547209 -0.027193977 0.0028851693
-0.010735638 -0.027341131 0.0025834136
-0.0089864349 -0.027499981 0.0029807508
-0.0069490355 -0.027499977 0.0029851242
-0.0049735922 -0.027499991 0.0029363618
-0.0029989521 -0.027499963 0.0029908023
-0.0010014175 -0.027499963 0.0030050585
0.0010853227 -0.027499972 0.0029692671
0.0029544977 -0.027499994 0.0029905594
0.0045236857 -0.026932094 0.0026711707
0.0066875564 -0.027249912 0.0029066568
0.0092912382 -0.027229806 0.0027262301
0.010744533 -0.027457817 0.0028157309
0.012803331 -0.027168658 0.0029907448
0.01496821 -0.027499963 0.0029358314
0.017040761 -0.027499974 0.0029428459
0.019078366 -0.027499983 0.003006597
0.02122418 -0.027499964 0.0029038445
0.022913164 -0.027499964 0.0029421989
0.024999134 -0.027499968 0.0029406918
0.027059073 -0.027499968 0.0029813091
0.029018488 -0.027499963 0.0030888855
0.031121848 -0.027499964 0.0029674468
0.033027422 -0.027499985 0.0029700426
0.034503505 -0.027277989 0.0029224164
0.036876895 -0.027242485 0.0028745274
0.038563937 -0.027467132 0.0028639331
0.041029103 -0.027499981 0.0029907345
0.043017343 -0.027499964 0.0029985346
0.044976648 -0.027499964 0.003010524
0.04611684 -0.027499964 0.0028818457
0.048983846 -0.027499977 0.0029907925
0.050993297 -0.027499972 0.0030269162
0.05227644 -0.027234931 0.0029635828
0.05503175 -0.027499964 0.002911798
0.057037894 -0.027499963 0.0029558539
0.059052665 -0.027499963 0.0030539653
0.060989313 -0.027499964 0.0029917101
0.063074298 -0.027499991 0.0030173962
0.064519174 -0.026946092 0.0028978121
-0.064386241 -0.024678927 0.002778417
0.064869933 -0.025013836 0.0030338438
-0.064445622 -0.022720352 0.0026906345
0.064999953 -0.022929106 0.0029812164
-0.064941734 -0.020909775 0.0028744286
0.065000013 -0.020988567 0.0030350867
-0.064999923 -0.01899769 0.0030239099
0.064999945 -0.019039521 0.0030163047
-0.064750001 -0.016782202 0.0028131411
0.063085206 -0.016694909 0.0027269232
-0.065000035 -0.014984218 0.0029313115
0.06499999 -0.014991014 0.0030281092
-0.064246245 -0.013121918 0.002939662
0.06436114 -0.012792788 0.0028430407
-0.064999931 -0.010974389 0.0030828398
0.06500002 -0.011051713 0.0030370017
-0.064999931 -0.0090024192 0.0029854528
0.064999975 -0.009018302 0.0030525641
-0.06499996 -0.0070607164 0.0030778875
0.064999975 -0.0070039113 0.0029380466
-0.064109571 -0.0050153309 0.0029148324
0.064496897 -0.0049341903 0.0029596498
-0.064999916 -0.002969991 0.0029982228
0.065000005 -0.0029641474 0.0029769316
-0.064999953 -0.00096493989 0.003005113
0.064999975 -0.00098627212 0.0029930519
-0.064885162 0.00078169681 0.0028851251
0.064999953 0.001030625 0.0029287087
-0.064111799 0.0031287451 0.0027610611
0.06408567 0.0030001216 0.002857385
-0.06499996 0.0050343247 0.0030350038
0.064999968 0.0050084828 0.0029755956
-0.064999931 0.0069736619 0.0030198807
0.064999953 0.0070295944 0.0028487297
-0.064999983 0.0090035861 0.0029911832
0.06499996 0.009042643 0.00291655
-0.06500002 0.011040041 0.0029380242
0.064999945 0.011053355 0.0030462898
-0.06458436 0.012969051 0.0028355306
0.065000027 0.013035964 0.0029659152
-0.06499996 0.015032654 0.0030454614
0.064999975 0.01498767 0.0030187129
-0.06500002 0.017036043 0.0029873645
0.064999975 0.016987216 0.0029520742
-0.064999938 0.018832123 0.0030255769
0.064999983 0.018937964 0.0030383551
-0.064135127 0.02102286 0.0028833959
0.064133309 0.02075284 0.0028438068
-0.064151332 0.022744272 0.0028576283
0.064071432 0.022754621 0.0029966708
-0.064999931 0.02504655 0.0030202612
0.064999953 0.024981119 0.0029968459
-0.064733669 0.027137075 0.0030292007
-0.061864525 0.027301444 0.0027024483
-0.060211502 0.02735745 0.0028593638
-0.058868203 0.027499977 0.0029916964
-0.057005871 0.027499966 0.0030222686
-0.054452002 0.027013747 0.0027813877
-0.052963287 0.027499964 0.0029707805
-0.05111631 0.027224749 0.0028819679
-0.048958782 0.027499963 0.0030110453
-0.047007401 0.027499966 0.0031135401
-0.045028985 0.027452229 0.002841258
-0.042995322 0.027499976 0.0030609285
-0.041048154 0.027499968 0.0029425235
-0.038953226 0.027499963 0.0030588286
-0.036857001 0.027499964 0.0029505405
-0.034583449 0.026790293 0.0029655821
-0.033092238 0.027499964 0.0029432795
-0.030957121 0.027499994 0.003003615
-0.029216332 0.027367121 0.00291334
-0.026990278 0.027499963 0.0030631626
-0.024697959 0.027284145 0.0028149209
-0.023017269 0.027499963 0.0030051693
-0.019669807 0.027050821 0.002510885
-0.018704003 0.026948925 0.0028166804
-0.017033651 0.027499977 0.0030375347
-0.014427454 0.027279096 0.0029561007
-0.012907973 0.027499966 0.00297498
-0.010957655 0.02749997 0.0030558808
-0.0089449687 0.027447945 0.0026659046
-0.0067828596 0.027499989 0.002903854
-0.0045766328 0.027354263 0.0028229319
-0.0029129141 0.027499966 0.002958288
-0.0010538846 0.027499963 0.0029434424
0.001068407 0.027499966 0.0030098248
0.0034228668 0.027499963 0.0030085708
0.0050420626 0.027499964 0.0029822376
0.0068948353 0.02717928 0.0029968915
0.0089884028 0.027499963 0.0030927339
0.011021134 0.027499963 0.0030454826
0.012558586 0.027234497 0.0028810108
0.014960506 0.02749997 0.003023922
0.01672516 0.027205203 0.0028707173
0.018953752 0.02749997 0.0029869177
0.021041945 0.027499963 0.0029801498
0.023023874 0.027499963 0.003041367
0.024637932 0.027405528 0.0029025918
0.026616542 0.0269692 0.0030319425
0.028452689 0.027499963 0.0028947268
0.031011043 0.027499964 0.003021101
0.032962821 0.027499963 0.0028980973
0.035012137 0.027499994 0.0029664282
0.036970478 0.027076218 0.0029568837
0.039159171 0.027276251 0.0028459486
0.041005421 0.02749997 0.0030118504
0.042952571 0.027212357 0.002835158
0.04487098 0.027499981 0.0030918419
0.047003508 0.027499979 0.0030722478
0.048941601 0.027499964 0.0030225776
0.051011845 0.027499974 0.0030183331
0.053077932 0.027499974 0.0030231981
0.054199945 0.027493645 0.0029773409
0.056989755 0.027499968 0.003007974
0.058987796 0.027499968 0.0030009137
0.061029833 0.027499964 0.0030476879
0.062448006 0.027355136 0.0029298558
0.064579487 0.026948005 0.0028820178
-0.064783111 -0.027100513 0.0050204168
-0.063048191 -0.027499963 0.0049803904
-0.061021816 -0.027499996 0.0049961661
-0.059015054 -0.027307983 0.0048032389
-0.05653869 -0.027178353 0.0048369314
-0.053471047 -0.027095554 0.0048731808
-0.053104378 -0.027499976 0.0048839478
-0.05050721 -0.027419256 0.0049801185
-0.049092464 -0.027499974 0.0050425343
-0.047009096 -0.027499964 0.0050756629
-0.045053303 -0.02749997 0.0049937032
-0.043086 -0.027499968 0.0049724542
-0.040975321 -0.027069412 0.0048221005
-0.038962834 -0.027499977 0.0050234869
-0.037008572 -0.027499964 0.0049625812
-0.035002373 -0.027499968 0.0049205692
-0.03302459 -0.027499964 0.0049557602
-0.030912029 -0.027499972 0.0049921684
-0.028955635 -0.027499963 0.0049576079
-0.026974628 -0.027499966 0.0049879458
-0.024979275 -0.027499963 0.0050615272
-0.022990089 -0.027499964 0.0050444808
-0.020896813 -0.027123353 0.0048369817
-0.018750221 -0.027090328 0.004753137
-0.016973658 -0.027499966 0.0049745045
-0.015019272 -0.027499964 0.0049882419
-0.013262555 -0.027344543 0.0049095396
-0.010676587 -0.027499169 0.0049834349
-0.0086724544 -0.027300917 0.0046489523
-0.0072716675 -0.027497543 0.0048447731
-0.0045894133 -0.02723141 0.0048849839
-0.0029762441 -0.027499981 0.0050223339
-0.00070440379 -0.02731139 0.004887972
0.0012357747 -0.027496841 0.004621095
0.0025591936 -0.027499983 0.0049747895
0.0050261309 -0.027499989 0.0050284681
0.0069335205 -0.027499966 0.0049463129
0.0089802239 -0.027499968 0.0049501923
0.010088552 -0.027464552 0.0047612009
0.013011191 -0.027498627 0.0048839478
0.014979002 -0.027217153 0.0047279093
0.017136352 -0.02749997 0.0050413799
0.018952187 -0.027499966 0.0049458514
0.021002082 -0.027499979 0.0050383941
0.022601373 -0.027156794 0.0047728638
0.024609672 -0.027164098 0.0049536382
0.02692447 -0.027499974 0.0049996022
0.029044908 -0.027499964 0.0050746156
0.031067606 -0.027499992 0.0050193635
0.033019565 -0.027139429 0.0049783867
0.034915026 -0.027499966 0.005036145
0.036863729 -0.027349822 0.0048600989
0.038903501 -0.027463309 0.0047738706
0.041036822 -0.027499989 0.0050273375
0.042981423 -0.027499972 0.0049716407
0.044941459 -0.0275 0.0050024875
0.04624318 -0.027206721 0.0047806427
0.049086738 -0.027499977 0.0049651391
0.051015377 -0.027499983 0.0050196927
0.052323282 -0.02740008 0.004893967
0.053961247 -0.026874848 0.0048010191
0.056767728 -0.027304316 0.0048370403
0.059100188 -0.027499964 0.005087784
0.061035819 -0.02749997 0.0050584227
0.062922433 -0.02749997 0.004979284
0.064808577 -0.02706369 0.0049899835
-0.064730428 -0.024805997 0.0048331651
0.064616807 -0.02481967 0.0047736191
-0.064010583 -0.022960683 0.0050194045
0.06499999 -0.022990385 0.0049098232
-0.06499996 -0.021030478 0.005005992
0.064999968 -0.020880911 0.0049997615
-0.064999998 -0.019080782 0.0049931505
0.064467549 -0.018790072 0.0047786236
-0.064843819 -0.017139034 0.0049067703
0.064999953 -0.01688916 0.0049270992
-0.064810678 -0.014855011 0.0048487317
0.064999953 -0.015005576 0.0049743853
-0.064999975 -0.013051759 0.0049715522
0.06465818 -0.012989401 0.004877334
-0.064999953 -0.011035935 0.005063049
0.064999998 -0.011065405 0.004902075
-0.064161249 -0.0091283778 0.0049201949
0.064999945 -0.009013027 0.0050323945
-0.06500005 -0.0068944939 0.0050229938
0.06499996 -0.0070241471 0.0049221823
-0.064999968 -0.0050245463 0.0048953914
0.064999983 -0.0050180643 0.0049395123
-0.064616598 -0.002941808 0.0047395309
0.06499996 -0.002981561 0.0049514393
-0.064999968 -0.0010202671 0.0049617961
0.06499996 -0.0010530934 0.0049992125
-0.064093783 0.0012823462 0.0045748642
0.065000005 0.00098410808 0.0050095189
-0.064999998 0.0029920235 0.0049440269
0.064999945 0.0029970333 0.0049529704
-0.064999945 0.0049936785 0.0050101788
0.064999975 0.0050451667 0.0050110109
-0.06448172 0.0067718932 0.0048993374
0.064312376 0.0069017182 0.0048656203
-0.065000027 0.0089864358 0.0049873912
0.06477686 0.00893036 0.0048276312
-0.065000005 0.010990454 0.005000432
0.064695984 0.010759584 0.0048021195
-0.064443767 0.013167144 0.0050285854
0.064735509 0.013027179 0.0047787763
-0.064999945 0.015096952 0.0050094342
0.064999938 0.014784045 0.0049358169
-0.064462788 0.017134443 0.0049561532
0.064544417 0.016914364 0.0047768098
-0.064999975 0.018932316 0.0049490752
0.063610986 0.01881111 0.0046731308
-0.064586811 0.020677585 0.0047915243
0.065000005 0.020968752 0.0050144368
-0.064999931 0.022958642 0.0049933945
0.064310879 0.022678202 0.0048239157
-0.064714678 0.024405288 0.0048204246
0.064999953 0.024971303 0.004898048
-0.064313307 0.026732992 0.0050027822
-0.062877342 0.027278328 0.004820779
-0.061034489 0.027499963 0.0049797585
-0.058740471 0.027420251 0.0048831077
-0.056946319 0.027499972 0.0049365535
-0.055000741 0.027499964 0.004978139
-0.052927062 0.027499963 0.0050088284
-0.050243381 0.027266463 0.0048178155
-0.048841175 0.027499752 0.0048504933
-0.047023647 0.027499963 0.0050409334
-0.044948671 0.027499983 0.0050683827
-0.042956308 0.027182071 0.0048540947
-0.041045032 0.027264563 0.0049492982
-0.038735114 0.027499972 0.0048435275
-0.036974732 0.027499974 0.0049744411
-0.035118498 0.02749997 0.0050631254
-0.032783333 0.027341338 0.0047913208
-0.030904846 0.027499963 0.0050468235
-0.028997529 0.02749997 0.0049687265
-0.027015906 0.027499981 0.004962536
-0.02444008 0.027497517 0.0048687072
-0.022796378 0.027471123 0.004849284
-0.020899022 0.027336294 0.004881124
-0.018987933 0.027499964 0.0049604182
-0.016800707 0.027344696 0.0049113766
-0.014969368 0.027499983 0.005022509
-0.013025522 0.027499966 0.0051018707
-0.010957574 0.027499972 0.0050021657
-0.0089634955 0.027499968 0.0049994788
-0.0066225133 0.027356774 0.004813591
-0.0050407113 0.027499964 0.0049825069
-0.0030556608 0.027499968 0.0050045731
-0.0010194364 0.027499966 0.0050554117
0.00094471668 0.027499964 0.004862132
0.00294394 0.027499963 0.0049540349
0.0048345798 0.02711802 0.0049023353
0.0065721441 0.0275 0.004940873
0.0090432242 0.027499972 0.0049698977
0.010567209 0.027423197 0.0048001967
0.012902198 0.027450623 0.0049030622
0.015250493 0.027356386 0.004893335
0.01708203 0.027499964 0.0048944717
0.019002987 0.02749997 0.0050028199
0.020660426 0.027109893 0.0048747533
0.022661166 0.027098507 0.0048993407
0.025032084 0.027499974 0.0049747727
0.026611993 0.027287353 0.004831681
0.029124435 0.027434036 0.0048002852
0.030470781 0.027499963 0.0049685286
0.033185195 0.02713112 0.004727663
0.034931943 0.027499963 0.0050090286
0.036800392 0.027160374 0.0049942983
0.03899328 0.027499963 0.0049350406
0.040637609 0.027496014 0.0048567858
0.042418737 0.027499964 0.0050065862
0.044076722 0.026973555 0.0046778754
0.046222325 0.027275547 0.0048234519
0.048970927 0.027269591 0.0048991209
0.05056591 0.027155038 0.004716292
0.053020995 0.027499963 0.0050081173
0.054981481 0.02698821 0.0048036007
0.056562994 0.027499963 0.0050089289
0.058978777 0.02731739 0.0048462986
0.060368884 0.027167944 0.0048051393
0.062543981 0.027125813 0.0049336376
0.064515144 0.026565064 0.0046991892
-0.064757407 -0.027048096 0.0070208283
-0.060832556 -0.026784208 0.0067623556
-0.06040572 -0.027422022 0.0068484163
-0.058983516 -0.027499963 0.0070754713
-0.055769432 -0.02699005 0.0065958891
-0.054466244 -0.027180446 0.0068700397
-0.052591871 -0.027385505 0.0068446002
-0.050309319 -0.027499977 0.0068674488
-0.049102157 -0.027499966 0.0069860686
-0.046937313 -0.027499964 0.0070117414
-0.044368401 -0.027162557 0.0068239928
-0.04307976 -0.027105195 0.0068727252
-0.040771354 -0.027125932 0.0068394286
-0.039023805 -0.027499974 0.0069792685
-0.036950056 -0.027499968 0.00700243
-0.035017982 -0.027499968 0.0070174686
-0.033000421 -0.027499985 0.007114796
-0.031111104 -0.027499964 0.0069112154
-0.028400119 -0.027145995 0.006851071
-0.027021023 -0.02749997 0.0069760978
-0.024908623 -0.027499977 0.0070068846
-0.022796838 -0.027470173 0.0065976223
-0.02107333 -0.027499964 0.0070159007
-0.01913083 -0.027438311 0.0068045231
-0.01727983 -0.02712325 0.0069489921
-0.014989066 -0.027499963 0.0069904472
-0.012702366 -0.027350007 0.0068087792
-0.010909424 -0.027499963 0.0070122825
-0.0090614483 -0.027499964 0.0070421658
-0.0069483365 -0.027499981 0.0069524376
-0.0050082495 -0.027499974 0.0070063812
-0.0031053447 -0.027499964 0.0069632148
-0.00097170472 -0.027499964 0.0070448881
0.0011898943 -0.027497577 0.0068195537
0.0030215916 -0.027499966 0.0069699618
0.0050171362 -0.027154064 0.0068924269
0.0070437938 -0.027499977 0.0070244372
0.0089436937 -0.027499974 0.007002722
0.010919491 -0.027473869 0.0069459258
0.013071231 -0.02749997 0.0070271203
0.015061641 -0.027499964 0.0069881645
0.017050583 -0.027497431 0.0068871896
0.018988414 -0.027497059 0.0068791155
0.020575309 -0.027307495 0.0068593188
0.022947177 -0.027499964 0.0070083253
0.02504571 -0.027499964 0.0070182211
0.027015457 -0.027499976 0.0070104683
0.029002393 -0.027154209 0.0067931633
0.031027053 -0.027499964 0.0069951718
0.032925438 -0.027218133 0.0068451562
0.035057466 -0.027499964 0.0070813228
0.036970641 -0.027499989 0.0070900326
0.038967829 -0.027499966 0.0070606559
0.041014865 -0.027499968 0.0070389663
0.042976707 -0.027499964 0.0069491905
0.045156825 -0.027499963 0.0070033083
0.047168266 -0.027094182 0.0066913171
0.048244152 -0.027495466 0.0068222699
0.050751053 -0.027234962 0.0067375191
0.052945945 -0.02749997 0.0069768601
0.05457345 -0.027408443 0.0068290872
0.057095189 -0.027499963 0.0069468552
0.059027042 -0.027499966 0.0070015485
0.060407154 -0.027499964 0.0069891289
0.062991165 -0.027499964 0.0070727682
0.064803295 -0.027071076 0.0069734831
-0.06499999 -0.024950678 0.0070139542
0.064211778 -0.025087925 0.0067582396
-0.064999923 -0.022964127 0.007041669
0.064630017 -0.0227025 0.0069223423
-0.064999945 -0.021041704 0.0069139199
0.064999968 -0.021048455 0.0069677727
-0.064144641 -0.018798096 0.0067941477
0.06500002 -0.019012963 0.0069906204
-0.064093314 -0.016669294 0.0069089886
0.064272769 -0.01710446 0.0068494333
-0.064999968 -0.015082957 0.0070477813
0.064999983 -0.014993361 0.0069059692
-0.064688921 -0.012955431 0.0067574424
0.064999945 -0.013036057 0.0069372612
-0.06500005 -0.010977364 0.0070538325
0.064999953 -0.010714243 0.006977459
-0.064999953 -0.0089813462 0.0071016103
0.06440793 -0.0091833118 0.0069537438
-0.06499999 -0.007030162 0.0069820592
0.064999908 -0.0070023709 0.0070273322
-0.064999968 -0.0049958536 0.0069600334
0.064405203 -0.005247877 0.0068686372
-0.064999923 -0.0028856664 0.0069604828
0.064999945 -0.0029830972 0.0070303879
-0.06499999 -0.00095889147 0.0070436117
0.065000035 -0.0010203287 0.0070103216
-0.064696506 0.0010045499 0.0068332432
0.06499999 0.0010539949 0.0069566416
-0.064551853 0.0031564017 0.0066407076
0.06499999 0.0030371309 0.0069793896
-0.06466268 0.0051166988 0.0069624283
0.064768203 0.0050727925 0.0067912107
-0.064121604 0.0068361755 0.0069354549
0.06499999 0.0070135104 0.0070073833
-0.064999953 0.0090406835 0.0069951862
0.063958257 0.0086533548 0.0066581168
-0.063754894 0.010743909 0.0067586736
0.065000005 0.011039374 0.0070052799
-0.064585857 0.013100219 0.0068709841
0.064999968 0.012966821 0.0069455598
-0.064221814 0.015028349 0.0068456498
0.064212054 0.014937981 0.0069330805
-0.065000035 0.017096924 0.0069684959
0.06499999 0.016955266 0.006933134
-0.063614771 0.018845895 0.0067007788
0.064999968 0.018888131 0.0069994773
-0.064999975 0.021036981 0.0069516506
0.064999945 0.020988077 0.0070204362
-0.064999953 0.022981938 0.006985106
0.064221472 0.022657255 0.0069795009
-0.064999931 0.025035363 0.0070035295
0.065000005 0.025008781 0.0070607737
-0.064769834 0.027062325 0.0070360624
-0.062206142 0.027499964 0.0069542355
-0.060373843 0.027499994 0.0068870024
-0.058973901 0.027499968 0.006956297
-0.056979332 0.027499963 0.0070087537
-0.05423186 0.027220154 0.0070036338
-0.052984383 0.027499963 0.007013523
-0.050878119 0.027404564 0.0068419706
-0.048314068 0.027499963 0.0068348101
-0.046978507 0.027237078 0.0068087713
-0.045032211 0.027499972 0.0070004519
-0.042978242 0.027499964 0.0069659795
-0.040941712 0.027499994 0.0070259352
-0.039060544 0.027499963 0.00700536
-0.036967825 0.027113087 0.0066844528
-0.03496664 0.027499963 0.0069674919
-0.032936912 0.027499963 0.0070121982
-0.0310665 0.027499966 0.0070445416
-0.028955752 0.027499963 0.0068777194
-0.026840944 0.026969098 0.0067309579
-0.025046796 0.027499964 0.0070370454
-0.023031529 0.027199397 0.0068071769
-0.021028671 0.027499964 0.0069686277
-0.018557457 0.026718732 0.0068159965
-0.016957194 0.027499968 0.0069805356
-0.015361098 0.027411567 0.0068853074
-0.012241815 0.027140796 0.0068177897
-0.010855633 0.027310194 0.0068261428
-0.0090479022 0.027499979 0.006898623
-0.0070248027 0.02749997 0.0069790743
-0.004961363 0.027499963 0.0070546782
-0.0028065939 0.027419806 0.0069156424
-0.00096771109 0.027499963 0.0069424231
0.0010150491 0.027499963 0.0070026056
0.0030472784 0.027499963 0.0070432392
0.0050466699 0.027499977 0.0069295377
0.0069093117 0.027499968 0.0070707286
0.0082768565 0.026952416 0.0066383365
0.010626553 0.027080733 0.0069510667
0.012564934 0.027299663 0.0068209106
0.015016993 0.027499963 0.006992199
0.016484588 0.027014351 0.0065928702
0.018955342 0.027499976 0.0069493675
0.020998068 0.027499972 0.0069870208
0.022990419 0.027499966 0.0069993818
0.024929332 0.027209423 0.0068553695
0.02697926 0.027158499 0.0068372851
0.028561899 0.027154064 0.0068427785
0.030385263 0.027095556 0.0067543481
0.032979343 0.027167002 0.0068460717
0.03403743 0.02721411 0.0068122777
0.037020635 0.027499966 0.0070734113
0.038933732 0.027499964 0.0069653075
0.041031551 0.027499963 0.0069802757
0.042524297 0.027370533 0.0068684001
0.04292161 0.027272655 0.0064527756
0.046470597 0.027499963 0.006897598
0.04897001 0.027499963 0.0070149833
0.050639521 0.027452786 0.006840297
0.053007375 0.027499977 0.007083158
0.054984435 0.027499966 0.0069945473
0.056932598 0.027499977 0.0069856695
0.058992695 0.027499964 0.0069588865
0.060990948 0.027499964 0.0071208938
0.061717719 0.026950328 0.0067182831
0.064808413 0.026792556 0.0069141048
-0.064708836 -0.026901767 0.0089154951
-0.063090935 -0.027499966 0.0090499781
-0.060978789 -0.027499977 0.0089841569
-0.058552437 -0.027497917 0.0088652419
-0.057056852 -0.027499977 0.0090326332
-0.055019464 -0.027499966 0.0089411102
-0.053024612 -0.027499996 0.0089978594
-0.051027302 -0.027499974 0.0090082251
-0.04906147 -0.027139593 0.0088221366
-0.046960235 -0.027499974 0.0089978417
-0.044980783 -0.02749997 0.0089995675
-0.042891819 -0.027135676 0.0088873561
-0.039336603 -0.026773641 0.0084993197
-0.03905395 -0.027499964 0.0090112658
-0.037141699 -0.027499136 0.0089438939
-0.034972794 -0.027377656 0.0088387616
-0.032970347 -0.027499974 0.0089985812
-0.031011052 -0.027499974 0.0089983316
-0.028569881 -0.027168285 0.0087589156
-0.026383843 -0.027149731 0.0087506808
-0.025029846 -0.027499994 0.0090285009
-0.023098931 -0.027154064 0.0089190779
-0.020933157 -0.027499977 0.0090213371
-0.018923806 -0.027499963 0.0089320485
-0.016697707 -0.027244633 0.0088930512
-0.014993665 -0.027499968 0.0090935798
-0.01262342 -0.026606226 0.0085808448
-0.010792292 -0.027498573 0.0087710852
-0.0089652771 -0.027499983 0.0089913206
-0.0070036664 -0.02749997 0.0089746639
-0.0045942212 -0.027145132 0.0089061297
-0.0029696079 -0.02749997 0.0089239683
-0.0010143131 -0.027499974 0.0090234317
0.0010082333 -0.02749997 0.0089963907
0.0024659897 -0.027413648 0.0089464644
0.0049831257 -0.027499964 0.0090343114
0.0069841803 -0.027499964 0.0089677703
0.0093843145 -0.027151586 0.0088128047
0.010967075 -0.027499977 0.0089169098
0.012936065 -0.027499964 0.0090549458
0.015039545 -0.027499976 0.009024932
0.016996741 -0.027499964 0.0090311449
0.019118853 -0.027041156 0.0087723769
0.02109956 -0.02736775 0.0088409735
0.022896491 -0.026708789 0.0087282984
0.025052007 -0.027499011 0.0088616805
0.026966656 -0.026320605 0.0084680486
0.0289459 -0.027499966 0.0090304483
0.030925477 -0.026908496 0.008746691
0.032737799 -0.027145712 0.0088691926
0.034970574 -0.027499985 0.0090083331
0.036596935 -0.027116276 0.0090510063
0.03915875 -0.027360668 0.0088968109
0.040313039 -0.02747101 0.0087009501
0.043035999 -0.027499983 0.0089603849
0.044797935 -0.027184268 0.0088602686
0.047094628 -0.027499981 0.008966418
0.049000386 -0.027499968 0.0089806151
0.049825948 -0.026728407 0.0087689962
0.052946705 -0.027499972 0.0089997891
0.055057857 -0.02749997 0.0091210231
0.056968931 -0.027499968 0.0089924708
0.05898086 -0.027499974 0.0089656115
0.060901742 -0.027499963 0.0090020737
0.063060053 -0.027499974 0.0089508528
0.064827047 -0.027018001 0.0090624401
-0.064999953 -0.025058487 0.0090406416
0.06499999 -0.025075208 0.0089930501
-0.065000005 -0.022997612 0.0090109911
0.064090177 -0.022951333 0.0089185657
-0.065000005 -0.020958202 0.0089692324
0.063352168 -0.020446301 0.0085255802
-0.064041846 -0.018949969 0.0087963091
0.064999923 -0.0190093 0.0089617539
-0.064518854 -0.01660111 0.0086686714
0.064999923 -0.017002508 0.008993702
-0.064419828 -0.015007907 0.0087376731
0.064646378 -0.015132911 0.0088985749
-0.06499996 -0.01305722 0.0089495499
0.064655267 -0.013104639 0.0089617781
-0.064999998 -0.010912521 0.0090164281
0.06500005 -0.010925847 0.0089827152
-0.064186148 -0.0087660104 0.0089373095
0.06499996 -0.0090839388 0.0089435596
-0.064079188 -0.0070624147 0.0086641395
0.064999998 -0.0070091048 0.0090983938
-0.064026155 -0.0049622199 0.0087383771
0.06499999 -0.0049338471 0.008969116
-0.065000035 -0.002976014 0.009014816
0.06499999 -0.0030245425 0.0090724174
-0.065000005 -0.00094458775 0.0090050297
0.064999983 -0.00099263748 0.0090061501
-0.063999966 0.0010083134 0.0086615039
0.064234257 0.00077740027 0.0090010138
-0.064999975 0.00294033 0.008936001
0.064999923 0.0029718548 0.0089328308
-0.065000027 0.0049840347 0.0090243705
0.06499996 0.0050011738 0.0089951027
-0.064999968 0.0069766706 0.0089624152
0.064037055 0.0070624198 0.0088183917
-0.06499996 0.0089277737 0.0089542661
0.06500002 0.0089140711 0.009010273
-0.06500002 0.011021442 0.008986596
0.064401262 0.011088339 0.0087974956
-0.064542122 0.012960916 0.0087859286
0.06499999 0.013035573 0.0090436423
-0.064999975 0.01495705 0.0089581804
0.064226754 0.014958981 0.008985783
-0.064964399 0.016962703 0.00864504
0.064311549 0.016989272 0.0088820746
-0.065000005 0.018936794 0.0090119969
0.064089499 0.018539721 0.0088021271
-0.063699901 0.020598069 0.0086283209
0.064999975 0.020993739 0.0089966506
-0.064999968 0.022965578 0.0090064099
0.06500005 0.022968015 0.0090879248
-0.064999975 0.024898816 0.0090342239
0.064202242 0.024416728 0.0087414663
-0.064821087 0.026997281 0.0090530021
-0.063002236 0.02749997 0.009023793
-0.060877893 0.027447773 0.0088061122
-0.059054472 0.027499985 0.0089739496
-0.057072736 0.027470037 0.0088712201
-0.055026349 0.027499963 0.0090658842
-0.052571569 0.02725948 0.0088067455
-0.05091266 0.027424615 0.0087934434
-0.049097694 0.027170738 0.0089249406
-0.04717366 0.027178681 0.0088920286
-0.044976797 0.027499964 0.0089241974
-0.042950902 0.027499964 0.0090869572
-0.040892314 0.027499985 0.0090582008
-0.03828577 0.027248455 0.0088023832
-0.036951635 0.027136223 0.0088092536
-0.034995675 0.027499977 0.0090110926
-0.032410357 0.027193356 0.0087406486
-0.03070958 0.027162841 0.0086849034
-0.029254299 0.02712643 0.0089004738
-0.02698046 0.027499963 0.0089553902
-0.02496133 0.027499966 0.0090340842
-0.022412905 0.027150221 0.0088881478
-0.021293882 0.027180394 0.0089085782
-0.018953085 0.027499977 0.0089621609
-0.017358182 0.027248316 0.008799064
-0.015155447 0.027257938 0.0088553028
-0.012478065 0.027451217 0.0089275641
-0.011045181 0.027418822 0.0086834794
-0.0090454835 0.027499963 0.0090396553
-0.0069505521 0.027499966 0.009024024
-0.0047894255 0.027499964 0.0089742057
-0.0029849266 0.027499981 0.0090167606
-0.00090310548 0.027179977 0.0085831555
0.00093418796 0.027499964 0.0089030061
0.0031701257 0.027061133 0.0085923709
0.0050259647 0.02749997 0.0091138463
0.0071032266 0.027499964 0.0090260739
0.0085708909 0.027231697 0.0089289667
0.010881499 0.027499966 0.0090799611
0.013250519 0.027216557 0.0088148583
0.014973438 0.027264656 0.0087937843
0.016660087 0.026781013 0.0089411763
0.018947292 0.027499974 0.008986678
0.020987356 0.027499963 0.0089772902
0.022826508 0.027499449 0.0089097591
0.024963932 0.02749997 0.009004388
0.027098738 0.027499964 0.008984495
0.029020974 0.027499966 0.0090921689
0.031010214 0.027499968 0.0089666974
0.032425113 0.026844602 0.008740182
0.034920216 0.027307792 0.0087285619
0.036978707 0.027499964 0.0090383748
0.038462069 0.027220916 0.0086774305
0.040278144 0.027441217 0.008810306
0.043079522 0.027499964 0.0090212803
0.04503832 0.027029416 0.008760144
0.046355478 0.026528439 0.0087690884
0.048948873 0.027499968 0.0090247756
0.051038716 0.027409388 0.0087856445
0.053051848 0.027499963 0.0089948615
0.05441907 0.027499964 0.0088396389
0.05680408 0.027499963 0.0088507421
0.058989953 0.027499966 0.0091313003
0.06107951 0.027500009 0.0089159012
0.062981039 0.027499964 0.0089269122
0.064799219 0.027056424 0.0089631779
-0.06480892 -0.027054302 0.011008172
-0.063034415 -0.027499981 0.010979621
-0.060922429 -0.027499963 0.010979379
-0.058652204 -0.027287146 0.010739692
-0.056969333 -0.027499976 0.010983172
-0.055131763 -0.027384169 0.010833258
-0.052933697 -0.027499964 0.011038764
-0.050337952 -0.027280215 0.010813104
-0.049060944 -0.027499981 0.011106246
-0.046573438 -0.027156228 0.010890761
-0.044548213 -0.027138127 0.010902661
-0.04268169 -0.027499976 0.010980034
-0.040469054 -0.027212156 0.010609481
-0.038968578 -0.027499966 0.011002067
-0.036998246 -0.027499964 0.011029728
-0.034987729 -0.02749997 0.011103662
-0.033011656 -0.027499963 0.011012504
-0.030962082 -0.027499981 0.011016023
-0.02883211 -0.027170204 0.01079566
-0.027041586 -0.027499968 0.011001468
-0.024806436 -0.027497642 0.010877716
-0.022391116 -0.026954381 0.010692586
-0.020820253 -0.027101416 0.010817948
-0.018830124 -0.027145088 0.010808708
-0.016948193 -0.027499983 0.011000546
-0.014969485 -0.027499966 0.011002591
-0.0133802 -0.026762187 0.010618261
-0.010959358 -0.027499968 0.011031051
-0.0086365556 -0.027499963 0.010869098
-0.0070850314 -0.027499963 0.010862533
-0.0050074244 -0.027499968 0.010956111
-0.0029632978 -0.027499964 0.01096146
-0.0010820961 -0.027499964 0.011075321
0.0012585997 -0.027499977 0.010927549
0.0029485018 -0.027080122 0.01070999
0.0053238999 -0.027115349 0.01072841
0.0069915326 -0.027499964 0.01108233
0.0089955628 -0.027499966 0.011014536
0.010577051 -0.02709627 0.010712782
0.013011777 -0.027499976 0.010993474
0.015051621 -0.027499992 0.010934975
0.016997203 -0.027499974 0.010876899
0.018982183 -0.027499963 0.010965788
0.021016078 -0.027499963 0.010970277
0.022751156 -0.027111504 0.010870993
0.025059663 -0.027499964 0.010859319
0.027068216 -0.027499963 0.011029635
0.02851709 -0.027497713 0.010786529
0.030972321 -0.027499974 0.010963883
0.033027176 -0.027499972 0.011010769
0.035056591 -0.027499992 0.011029568
0.036991231 -0.02749997 0.010994208
0.038593981 -0.027459802 0.010836919
0.041167893 -0.027464258 0.010763626
0.043128427 -0.027499977 0.011029263
0.045024931 -0.027499966 0.011070251
0.046989929 -0.027499981 0.010959183
0.049015447 -0.027499976 0.011026327
0.050809596 -0.027106175 0.010798204
0.053026091 -0.027499963 0.010869018
0.054902274 -0.027499966 0.011010389
0.056269459 -0.02734239 0.010797363
0.058932781 -0.027499974 0.010968434
0.060994409 -0.027499964 0.010974728
0.062977478 -0.027403858 0.010830111
0.064694196 -0.027089065 0.010934998
-0.064999945 -0.024930894 0.011037523
0.064539626 -0.024998106 0.011015034
-0.064590663 -0.022672329 0.010773602
0.063038617 -0.022852233 0.010736688
-0.064112462 -0.020852793 0.010929114
0.064999945 -0.020995155 0.011006477
-0.064355485 -0.018761273 0.010835473
