# .PCD v0.7 - Point Cloud Data file format
VERSION 0.7
FIELDS x y z
SIZE 4 4 4
TYPE F F F
COUNT 1 1 1
WIDTH 1281
HEIGHT 1
VIEWPOINT 0 0 0 1 0 0 0
POINTS 1281
DATA ascii
-0.05021343 0.020712929 0.045359075
-0.049134132 0.021134926 0.047381826
-0.046626586 0.020417204 0.046520121
-0.045002554 0.021072321 0.047415283
-0.042397972 0.020768182 0.045996889
-0.040220246 0.021585789 0.046886161
-0.039033961 0.021616803 0.046150215
-0.037054937 0.021062331 0.047420617
-0.03506507 0.021028051 0.047438949
-0.032958046 0.020897135 0.047508936
-0.030031577 0.020912629 0.04601239
-0.028708449 0.021138383 0.047336511
-0.025646873 0.02113785 0.046483744
-0.023678135 0.020813007 0.046241779
-0.022544315 0.020377781 0.046038583
-0.020781154 0.020748751 0.045452569
-0.017865187 0.020531669 0.047178406
-0.016482867 0.01970366 0.045801587
-0.014026766 0.019267548 0.044400174
-0.01357125 0.020285195 0.045053117
-0.010167646 0.020288888 0.044371501
-0.0078763617 0.019373273 0.045553759
-0.0052188272 0.020488175 0.04562154
-0.0051339744 0.021029055 0.047438417
-0.0029717316 0.020540494 0.045085546
-0.00094034837 0.021025557 0.047440283
0.0010177849 0.021389078 0.046657797
0.0011222509 0.020044753 0.04722809
0.0048290649 0.020149296 0.045849644
0.006859181 0.020817349 0.046089988
0.0097433738 0.020903589 0.047361221
0.0089361314 0.020039404 0.046004422
0.013023912 0.021019518 0.047443513
0.013856276 0.020527251 0.047228556
0.017073078 0.021259945 0.045598507
0.01839157 0.02020821 0.044759002
0.02169065 0.020808596 0.046018746
0.023912041 0.020952379 0.047123458
0.025457462 0.020585021 0.046446331
0.02656929 0.021397371 0.046700973
0.028195444 0.02031206 0.047382876
0.030966297 0.02103232 0.047436681
0.032198548 0.019884299 0.047204122
0.034380004 0.020292714 0.047436893
0.035811264 0.02018168 0.046601158
0.038635544 0.020204466 0.047172073
0.039859697 0.019555489 0.045645107
0.042759474 0.020150144 0.047199115
0.044595253 0.021258846 0.045844439
0.045941997 0.021205258 0.046195935
0.048997808 0.021030705 0.047437534
0.050913639 0.021103658 0.047398534
0.050370708 0.019109808 0.045469213
0.055063646 0.021030698 0.047437534
0.055211205 0.021231342 0.047283974
0.058720835 0.019995067 0.045932755
0.060330324 0.019632533 0.046619385
0.060101595 0.019966587 0.046241667
0.065009817 0.020918174 0.047497693
0.067030661 0.021079801 0.047411293
0.065089606 0.019932078 0.044759039
0.070000008 0.021013916 0.046184067
-0.069256 0.022752875 0.04643457
-0.067015171 0.02322709 0.045825791
-0.065004356 0.022878168 0.046449892
-0.061288748 0.021579482 0.046414535
-0.058612887 0.022987956 0.045000196
-0.056583978 0.022511663 0.045422573
-0.057055712 0.022930941 0.046421677
-0.053349845 0.023182707 0.046241466
-0.050888456 0.021602791 0.04499732
-0.051010121 0.022858782 0.04646026
-0.049009006 0.022835465 0.046472717
-0.04726458 0.022222577 0.044879891
-0.041719951 0.022312814 0.044516474
-0.041096613 0.021904703 0.046019699
-0.041056775 0.022848675 0.046465654
-0.036220323 0.021404911 0.044416711
-0.036305718 0.021033568 0.044067778
-0.033193301 0.020422217 0.043527231
-0.03292812 0.022947233 0.046412975
-0.028378833 0.020599945 0.043126818
-0.02652603 0.021602143 0.042188097
-0.026002763 0.022576662 0.044746846
-0.024887083 0.022936407 0.046418745
-0.023054548 0.022875942 0.046451088
-0.02006462 0.022259951 0.044989824
-0.017690208 0.023118803 0.044321563
-0.016515382 0.023189764 0.046127055
-0.012825066 0.020299759 0.045108564
-0.01122612 0.021625282 0.045241702
-0.010307925 0.02311565 0.045193855
-0.0066733542 0.0210799 0.044320967
-0.0055890204 0.022570763 0.045482691
-0.0035519756 0.021897083 0.04531141
-0.0011256201 0.020598046 0.045479234
-0.00097743759 0.022819245 0.046481397
-0.00049271685 0.021814287 0.042940482
0.0024028746 0.021703815 0.045638949
0.003986388 0.023380324 0.044636559
0.0076611787 0.023469336 0.043637063
0.0090312166 0.022874702 0.046451744
0.010958469 0.022905963 0.046435032
0.013184322 0.022448884 0.045116145
0.014259599 0.02136958 0.043015335
0.017882774 0.021596983 0.045508176
0.018612944 0.023151213 0.046201475
0.01999061 0.022481209 0.045123059
0.021268539 0.022998558 0.043692134
0.024953799 0.022822082 0.04647987
0.025567047 0.021375747 0.044961151
0.028908605 0.022885101 0.046446182
0.029692739 0.022821566 0.046451923
0.033105224 0.022885898 0.046445761
0.035612542 0.021725899 0.045589283
0.036453839 0.022098701 0.046336841
0.039428208 0.022623789 0.045924235
0.040865492 0.022352861 0.044766068
0.042942494 0.022904078 0.04643603
0.045500338 0.022513134 0.042423818
0.045598269 0.021753436 0.045901626
0.049272258 0.02185848 0.045982558
0.049989194 0.022317065 0.04543329
0.051288716 0.022412797 0.046091989
0.054858461 0.022922505 0.046426184
0.056879215 0.02285265 0.046463538
0.05743397 0.0219393 0.046195418
0.058405299 0.021046281 0.044077292
0.063096434 0.022095473 0.045743641
0.065181054 0.022926223 0.046424195
0.065774977 0.022835674 0.043553729
0.064886041 0.021531014 0.044574786
-0.069190942 -0.018955028 0.048308317
-0.0665837 -0.019177923 0.046891358
-0.06491188 -0.019082503 0.048289068
-0.06059055 -0.019635109 0.045276653
-0.057257529 -0.017601553 0.046868417
-0.057598472 -0.019388922 0.047296789
-0.054230109 -0.019496376 0.044325303
-0.054005533 -0.019205328 0.045709472
-0.051926158 -0.019265907 0.046473071
-0.051111959 -0.018906701 0.048342779
-0.04945815 -0.019101102 0.046784125
-0.045151554 -0.018822225 0.047248475
-0.044484958 -0.018553289 0.046752363
-0.041026168 -0.019130377 0.045617085
-0.037955936 -0.017276481 0.043809082
-0.039058249 -0.018812325 0.048371781
-0.035399713 -0.018149067 0.047301527
-0.035002507 -0.018953634 0.04832878
-0.032621346 -0.019139575 0.046666928
-0.031141475 -0.018970922 0.048323628
-0.027298544 -0.018885866 0.047146834
-0.025818111 -0.019357547 0.046790805
-0.025039326 -0.018935381 0.048334442
-0.023581682 -0.018886209 0.046916358
-0.020973897 -0.019038459 0.048302565
-0.018546447 -0.019278115 0.048004873
-0.016390033 -0.017572151 0.046484042
-0.014892665 -0.019043846 0.048300628
-0.012922343 -0.017507134 0.046931498
-0.010287879 -0.019158702 0.046983298
-0.0089979749 -0.0189596 0.048327044
-0.0069755772 -0.018882522 0.048349924
-0.0039485767 -0.018089704 0.048102219
-0.0030309521 -0.01897051 0.048323773
-0.0010481732 -0.018986281 0.048318673
0.00098354032 -0.018935183 0.048334386
0.0037668822 -0.019155888 0.048193816
0.0049155327 -0.018915778 0.048340268
0.006852631 -0.019185277 0.048211012
0.0083966861 -0.018576879 0.046729609
0.012101467 -0.016922627 0.045497566
0.01406836 -0.018013764 0.046564922
0.014987895 -0.018981205 0.048320368
0.016076833 -0.018347673 0.046348896
0.019084979 -0.018930841 0.048335139
0.021058301 -0.01899372 0.048316319
0.022216959 -0.017149022 0.047283415
0.02522243 -0.018425882 0.04728381
0.025249813 -0.018130088 0.044831801
0.029022126 -0.019037537 0.048303429
0.031094158 -0.019015459 0.04830981
0.032917086 -0.018984701 0.048318997
0.0338316 -0.018444905 0.047280814
0.037246127 -0.017810661 0.047878068
0.039062604 -0.019093525 0.048285548
0.040555503 -0.017589677 0.045459915
0.043024972 -0.018914914 0.0483406
0.045308344 -0.018101711 0.048182447
0.047115058 -0.018984001 0.0483195
0.049150616 -0.019151904 0.048268609
0.051059462 -0.019024733 0.048306961
0.052995834 -0.019028395 0.048305791
0.053117607 -0.016642133 0.047069829
0.057168871 -0.019186769 0.048235759
0.05894158 -0.01898033 0.048320636
0.059755113 -0.018739203 0.047865011
0.063080676 -0.018992733 0.04831703
0.065044515 -0.018967396 0.048324171
0.064308502 -0.01945452 0.047156174
0.068038486 -0.018185679 0.047328707
-0.067786127 -0.017339082 0.047932595
-0.064053416 -0.015165833 0.048491307
-0.063193105 -0.015845353 0.047704089
-0.062207945 -0.016192809 0.048725944
-0.061248347 -0.016545834 0.047980879
-0.057498846 -0.016070113 0.047327451
-0.055270132 -0.015526921 0.047292888
-0.053935345 -0.017375762 0.048076849
-0.049615275 -0.017289033 0.048036616
-0.05106321 -0.016993461 0.048923258
-0.049030568 -0.017000956 0.048920982
-0.046439551 -0.01606774 0.04809656
-0.045012128 -0.017029569 0.048912313
-0.043041416 -0.017038174 0.048909687
-0.038047105 -0.016676361 0.046493795
-0.034932438 -0.015622889 0.046274997
-0.037097719 -0.01696144 0.04893297
-0.031871434 -0.01635191 0.044595469
-0.032992378 -0.016986525 0.048925366
-0.029395569 -0.017041145 0.048579235
-0.027902039 -0.016772468 0.047060911
-0.025929734 -0.015872385 0.04857241
-0.025049917 -0.01697748 0.048928112
-0.019209379 -0.016365794 0.045451183
-0.021629741 -0.016676756 0.047813851
-0.018953484 -0.016908398 0.04894904
-0.014016492 -0.015383353 0.044659548
-0.015568005 -0.016471773 0.047248423
-0.010600477 -0.016835259 0.048165783
-0.012182457 -0.016267713 0.047113363
-0.0092692496 -0.014853359 0.048017532
-0.0059532211 -0.017127566 0.048539747
-0.0050421203 -0.017035013 0.048910663
-0.0020140072 -0.017650107 0.048369367
-0.00096952455 -0.015754253 0.047905471
0.0010131021 -0.016881272 0.048957266
0.003073937 -0.017055845 0.048904341
0.0052177827 -0.01698246 0.048904497
0.0057680276 -0.017213359 0.046778642
0.0089757098 -0.017158937 0.047770169
0.01309242 -0.017950093 0.046710745
0.013000576 -0.016983429 0.048926298
0.01500653 -0.016994307 0.048923004
0.016967742 -0.017071791 0.048899502
0.017995084 -0.016256578 0.047374737
0.020076461 -0.015694816 0.047641091
0.0229706 -0.017058199 0.048903637
0.023427092 -0.015585796 0.045028698
0.02740334 -0.016409947 0.047486316
0.029021766 -0.017112201 0.048887257
0.030427178 -0.015858609 0.046716671
0.031937681 -0.017088182 0.048864666
0.03353842 -0.017499825 0.046255853
0.036984865 -0.016972331 0.048929654
0.038705971 -0.015999917 0.048469428
0.040307179 -0.016682858 0.045825738
0.0417246 -0.016736396 0.047373626
0.044010896 -0.01745492 0.048517067
0.047010478 -0.017044563 0.048907757
0.049071766 -0.016991861 0.048923742
0.051069248 -0.016939446 0.048939649
0.053385086 -0.016341891 0.047799405
0.053392984 -0.016737126 0.048488829
0.055154305 -0.016374212 0.048651304
0.058114536 -0.015785579 0.048709724
0.06095757 -0.017043397 0.048908118
0.061899144 -0.017468723 0.048504058
0.06502331 -0.015973903 0.048450027
0.064361565 -0.016481459 0.048166659
0.069352388 -0.017041463 0.048771527
0.070000008 -0.017411031 0.048511155
-0.06808915 -0.014496312 0.048368432
-0.066962175 -0.014997386 0.049528535
-0.064120419 -0.013935732 0.048547242
-0.061034489 -0.015571597 0.048995979
-0.05836276 -0.014296025 0.047079761
-0.059000138 -0.014992236 0.049530096
-0.054934323 -0.014820943 0.049385097
-0.053654335 -0.015679929 0.048416611
-0.052279182 -0.015006499 0.049485929
-0.051016629 -0.014945885 0.049544141
-0.047512311 -0.014639847 0.048361816
-0.043316171 -0.013781324 0.047113061
-0.043509379 -0.014904732 0.046905279
-0.043039802 -0.015132573 0.049487524
-0.04094607 -0.014997466 0.049528517
-0.039105054 -0.014980539 0.049533643
-0.034517676 -0.014082899 0.048093215
-0.034543119 -0.014078326 0.048890606
-0.032932639 -0.014987424 0.049531557
-0.029950306 -0.014508684 0.049357511
-0.0274844 -0.014526637 0.046360828
-0.025436589 -0.015235714 0.049346346
-0.021399105 -0.013500847 0.046948776
-0.022133792 -0.014316295 0.04870053
-0.020762941 -0.014137372 0.04924535
-0.019130651 -0.014843502 0.04812089
-0.016230147 -0.015371717 0.047675081
-0.014433159 -0.014179815 0.047164146
-0.013214659 -0.015587083 0.048928712
-0.011310797 -0.014877915 0.047978818
-0.008139764 -0.015474901 0.049202394
-0.0069285021 -0.014986852 0.049531739
-0.0060496232 -0.013887161 0.048848361
-0.003116033 -0.015091222 0.049500052
-0.0018165202 -0.014281498 0.047943145
-0.0013627295 -0.015013359 0.048055217
0.0028024868 -0.015082869 0.049502604
0.0033966315 -0.013876476 0.048114169
0.0063820882 -0.01562346 0.048136614
0.0091056479 -0.014338144 0.049368914
0.011085501 -0.014909545 0.049555171
0.011872435 -0.014358418 0.048092399
0.015491391 -0.014224936 0.046550263
0.016896414 -0.015015721 0.049522966
0.018552644 -0.01536243 0.04826365
0.020981748 -0.015066953 0.049486194
0.021147316 -0.012972786 0.046503171
0.024880491 -0.015818087 0.047571339
0.028051222 -0.015680201 0.049219791
0.028653909 -0.015427211 0.049204778
0.030641424 -0.015369156 0.049043711
0.031914357 -0.014274438 0.047737483
0.035612993 -0.014866076 0.048547808
0.034401096 -0.014198926 0.047484525
0.037422284 -0.015177717 0.048871674
0.041056003 -0.014910221 0.049554974
0.041607425 -0.015434999 0.049138721
0.044583675 -0.014414097 0.049142644
0.046886496 -0.015053155 0.049511619
0.049097117 -0.014912745 0.049554199
0.047455333 -0.014375613 0.047452364
0.051009022 -0.015436772 0.049226508
0.055331107 -0.01526638 0.04851415
0.05523153 -0.014183839 0.048595376
0.058976326 -0.01495007 0.049542896
0.061001051 -0.014952328 0.049542204
0.061229449 -0.015153929 0.047348242
0.063433215 -0.014939845 0.047969162
0.065471247 -0.013876896 0.048803717
0.065105982 -0.013517614 0.047040269
0.070000008 -0.015792467 0.048549496
-0.069810525 -0.013115184 0.049246047
-0.067130305 -0.013645196 0.049938817
-0.065210901 -0.013733028 0.049912155
-0.054656524 -0.0092988061 0.047786012
-0.061000187 -0.013669846 0.049931329
-0.04594133 -0.0082668243 0.043183368
-0.057000238 -0.013727549 0.049913824
-0.05494231 -0.013756302 0.049905095
-0.046078514 -0.015348664 0.047417611
-0.051160309 -0.01371481 0.049917687
-0.048982281 -0.013723003 0.049915206
-0.042375319 -0.011036047 0.046914708
-0.044970106 -0.011274953 0.044837616
-0.038726375 -0.014646312 0.044434756
-0.040866695 -0.013726824 0.049914036
-0.031230535 -0.01344425 0.044575199
-0.037013002 -0.013746179 0.049908169
-0.035076246 -0.013743114 0.049909096
-0.032843094 -0.013688295 0.049925726
-0.031342018 -0.013693349 0.049924202
-0.029000057 -0.013694998 0.049923699
-0.026932457 -0.01371822 0.049916655
-0.022152781 -0.0096361246 0.043092228
-0.016400822 -0.014613036 0.049075529
-0.020937787 -0.013757809 0.049904641
-0.012416529 -0.014780277 0.042061999
-0.016944591 -0.013742195 0.049909379
-0.013406379 -0.015101206 0.04712474
-0.0055190753 -0.0090908939 0.046469841
-0.011072271 -0.013763539 0.049902905
-0.0053119403 -0.012471939 0.047479309
-0.0072588767 -0.013736559 0.049911089
-0.0049050096 -0.013747701 0.049907718
-0.0031993431 -0.013721859 0.049915548
-0.00094702927 -0.013799265 0.049892057
0.0011204311 -0.013753578 0.049905922
0.0029483845 -0.013684693 0.049926825
0.0051600863 -0.013711723 0.049918626
0.0070143514 -0.013700968 0.049921885
0.0088926256 -0.013752654 0.049906202
0.010947093 -0.01373027 0.049912993
0.012967738 -0.013727645 0.04991379
0.015023002 -0.013710717 0.049918927
0.013149316 -0.010740579 0.046271268
0.018959062 -0.01374659 0.049908042
0.021070303 -0.013699154 0.04992244
0.022962771 -0.013700658 0.049921982
0.024840562 -0.01372931 0.049913283
0.027009048 -0.013676019 0.049929455
0.018693078 -0.016912661 0.041765787
0.030967783 -0.013675407 0.049929645
0.033172689 -0.013787546 0.049895618
0.034904383 -0.013719052 0.049916398
0.036765859 -0.013664927 0.049932826
0.038852695 -0.013762062 0.049903352
0.035241641 -0.013805928 0.046661824
0.043236762 -0.013722285 0.049915414
0.045130342 -0.013699965 0.049922191
0.046995267 -0.013713962 0.049917948
0.048990671 -0.013675125 0.049929727
0.050938677 -0.013727366 0.049913872
0.053036317 -0.013718516 0.049916565
0.050716501 -0.011636799 0.04581061
0.057341702 -0.011081568 0.049225122
0.059206776 -0.01366458 0.049932931
0.057508942 -0.011817085 0.04654796
0.063122839 -0.013697463 0.049922943
0.064999394 -0.01377341 0.049899906
0.067060672 -0.013781153 0.049897555
0.069424778 -0.0126911 0.04740097
0.070000008 -0.012979627 0.049102396
-0.063336663 -0.010797868 0.045645513
0.068125047 -0.010461089 0.047568541
0.070000008 -0.011004715 0.048940524
-0.069999985 -0.0081943134 0.048271097
0.07 -0.0089924121 0.048983902
0.070000008 -0.0086677615 0.04875382
-0.06961026 -0.0070382324 0.047175795
0.065593965 -0.0069241901 0.043909449
0.070000008 -0.0067830607 0.048432343
-0.07000003 -0.0050039026 0.048993874
0.068297587 -0.0041780071 0.048056554
0.070000008 -0.0053721308 0.049192909
-0.067113042 -0.0018437784 0.046002392
0.069999993 -0.0036209384 0.048205577
0.070000008 -0.0026517245 0.049145363
-0.067162387 0.00063508109 0.047467303
0.067768127 -0.00044374785 0.046137068
0.070000008 -0.00076983095 0.048568416
-0.067145869 0.0016712165 0.047730364
0.068585239 0.00045481825 0.045433342
0.070000008 0.00077804236 0.049361944
-0.069956914 0.0024690253 0.047709305
0.06774772 0.0041332976 0.047912799
0.034787264 0.019623179 0.032718468
-0.07 0.0050447392 0.048980877
0.067097887 0.0059369244 0.046777166
0.070000008 0.0043723127 0.049586575
-0.061146941 0.00835359 0.042143431
0.069999978 0.0071052476 0.04914739
0.070000008 0.0075601693 0.048453212
-0.068650201 0.0080615152 0.048486605
0.070000015 0.0089097042 0.049021874
0.070000008 0.0083372137 0.049000811
-0.068160176 0.011693005 0.048396882
0.068478346 0.010840185 0.046476208
0.070000008 0.011188874 0.048878886
-0.065910764 0.012804165 0.047886238
-0.067086004 0.013725785 0.049914356
-0.064970836 0.013730139 0.049913034
-0.062706366 0.013734419 0.049911734
-0.054011341 0.015815353 0.046866387
-0.052351948 0.011387328 0.047362059
-0.05691205 0.013694945 0.049923722
-0.055007882 0.013755076 0.049905472
-0.05289188 0.012067091 0.043207187
-0.050960571 0.013689925 0.049925234
-0.048965018 0.013752394 0.049906284
-0.039836772 0.012210391 0.040955909
-0.045028362 0.013707621 0.049919873
-0.043133415 0.013717744 0.0499168
-0.041218605 0.013666411 0.049932372
-0.0391092 0.013726541 0.049914125
-0.036945436 0.013811762 0.049888264
-0.030701902 0.010906923 0.047180116
-0.032949246 0.013676288 0.04992938
-0.030947279 0.013746884 0.049907953
-0.024628317 0.014175188 0.045561727
-0.020016871 0.014519371 0.049279552
-0.024750428 0.01369921 0.049922425
-0.019263882 0.014141028 0.047273517
-0.021032419 0.013731776 0.049912542
-0.01492673 0.014810898 0.047481745
-0.016984761 0.013666651 0.049932301
-0.01611018 0.010899391 0.048936948
-0.013035013 0.013725281 0.049914517
-0.010886914 0.013716781 0.049917087
-0.0089996997 0.013710236 0.049919073
-0.0074163429 0.013776363 0.049899004
-0.0050212536 0.01368181 0.049927708
-0.0027451133 0.013721236 0.049915735
-0.0010320557 0.013750332 0.049906906
0.0021353685 0.01046333 0.046289425
0.0030244207 0.013656314 0.049935441
0.0049361689 0.013725797 0.04991436
0.0069040135 0.013803748 0.049890693
0.0092882859 0.013718332 0.049916618
0.012069195 0.014206201 0.049725726
0.01300452 0.013692765 0.049924385
0.01521848 0.013608269 0.049950022
0.01688331 0.013682202 0.049927581
0.019099882 0.013678397 0.049928736
0.021169823 0.011765373 0.049593527
0.024788555 0.015209076 0.048837692
0.02497304 0.01423429 0.044553883
0.026871711 0.013671425 0.049930856
0.030841401 0.01241149 0.048415076
0.03111962 0.013687261 0.04992605
0.034789607 0.012859173 0.047346111
0.035356153 0.013749984 0.049907014
0.038679149 0.012531636 0.049774051
0.039130058 0.013664873 0.049932849
0.040801413 0.013706665 0.049920153
0.035297722 0.011449797 0.049910963
0.045085691 0.013711687 0.049918633
0.046837829 0.013722615 0.049915314
0.039815284 0.013993581 0.042918749
0.051021907 0.013718101 0.049916688
0.05409468 0.015772153 0.047432419
0.055026304 0.01368928 0.049925435
0.056941189 0.013668944 0.049931608
0.058257684 0.014907029 0.048418622
0.059470434 0.015438198 0.047664832
0.063695908 0.015799839 0.047267828
0.064920694 0.013699347 0.049922381
0.067266397 0.013719722 0.049916193
0.068468235 0.012413172 0.048124269
0.06702172 0.025043029 0.030393798
-0.068069577 0.013854434 0.047707014
-0.064613499 0.014542176 0.04770226
-0.063157588 0.014065241 0.046757698
-0.061615039 0.014360599 0.049451116
-0.059552535 0.015271051 0.048182704
-0.057888772 0.015461696 0.047648847
-0.057124052 0.014708471 0.048808586
-0.051409557 0.011615246 0.046970237
-0.050682273 0.015392203 0.046758585
-0.045091558 0.014808129 0.047092285
-0.049050637 0.014178348 0.0473805
-0.046927363 0.014982217 0.049533151
-0.043573823 0.015538131 0.048754517
-0.042844087 0.015005345 0.049526118
-0.037420712 0.014204529 0.047888163
-0.038198542 0.015097274 0.048169758
-0.037323881 0.015513477 0.048590768
-0.03457091 0.015689395 0.047761459
-0.032829981 0.015039854 0.049515646
-0.02861451 0.013505312 0.048075955
-0.028897526 0.015016404 0.049522761
-0.02505229 0.01367049 0.048566159
-0.025193824 0.015479373 0.048404187
-0.020030588 0.014859236 0.047395971
-0.020967135 0.015025919 0.049519874
-0.019799955 0.015354218 0.048120555
-0.016335258 0.015429129 0.049010903
-0.013468499 0.015814418 0.047742277
-0.011861951 0.013446444 0.047769472
-0.0086578373 0.014813116 0.046679497
-0.0092295399 0.01542839 0.047050904
-0.0063280421 0.014176121 0.046394709
-0.0030731361 0.013818018 0.047494296
-0.0030786581 0.014038158 0.048815217
-0.00012761958 0.015022672 0.04789063
0.0018686254 0.014541796 0.048332881
0.0029191473 0.014840767 0.049576044
0.0046069175 0.014986639 0.048263278
0.0067405538 0.015173521 0.047045022
0.0079873139 0.013647025 0.047563668
0.011057471 0.014976115 0.049534969
0.012685079 0.015907038 0.047722183
0.013596826 0.014450891 0.048314121
0.017013593 0.015028277 0.049519155
0.017573263 0.015238034 0.047765277
0.020219909 0.013922293 0.047589682
0.022280013 0.014042917 0.048693396
0.024884086 0.014513173 0.049503144
0.027022697 0.014958353 0.049540371
0.027938562 0.01409316 0.049087521
0.029378818 0.014843968 0.049456816
0.033035163 0.015140552 0.049485099
0.035479281 0.014536751 0.049380466
0.035481956 0.013406494 0.045011487
0.038093332 0.013875349 0.047392476
0.040987656 0.015002024 0.049527138
0.041307312 0.014005152 0.048035961
0.044890769 0.014976215 0.049534958
0.046308208 0.015203862 0.049413197
0.0459322 0.014295787 0.048907258
0.051133573 0.015102012 0.04811902
0.052231729 0.01509288 0.049475621
0.05490144 0.015080115 0.049503453
0.055507898 0.014592511 0.048210621
0.056677528 0.014948957 0.048583556
0.060911059 0.014953324 0.049541894
0.06240391 0.015158638 0.048038308
0.064000882 0.014660352 0.048395701
0.066036418 0.014428412 0.04936488
0.068705291 0.014602476 0.048464015
0.070000008 0.015444579 0.04821071
-0.068448171 0.01741275 0.047699537
-0.066459134 0.015468628 0.047072694
-0.064927079 0.016969774 0.04893044
-0.060885955 0.016305452 0.048847489
-0.059471898 0.015405369 0.047046211
-0.057080403 0.015440598 0.047079843
-0.054689419 0.016061613 0.04744054
-0.054692037 0.017385831 0.048234083
-0.053003922 0.017035585 0.04891048
-0.05102586 0.017153695 0.048874669
-0.047061868 0.015885413 0.048101503
-0.047061469 0.017026765 0.048913151
-0.044758279 0.017148331 0.047408164
-0.041667785 0.016698064 0.047767334
-0.039569147 0.016166925 0.048864663
-0.039074704 0.01700422 0.048920002
-0.036126133 0.015852975 0.04849698
-0.03512523 0.017054833 0.048904639
-0.03365688 0.016136186 0.047922917
-0.030735543 0.01606415 0.048026402
-0.029099654 0.017042875 0.048908271
-0.027088078 0.016350793 0.047540028
-0.024322506 0.016306784 0.04678699
-0.022218997 0.015420718 0.046437979
-0.021008305 0.016334692 0.047795042
-0.018963754 0.017298069 0.045972418
-0.016159724 0.01715824 0.048844006
-0.014453799 0.017649192 0.048246168
-0.011781999 0.016124835 0.045616265
-0.011933876 0.017026065 0.048629228
-0.0077641448 0.016270477 0.047549423
-0.0068846648 0.01711227 0.048887245
-0.0038076984 0.017335517 0.046388302
-0.0030491252 0.017075939 0.048898246
0.0001428481 0.017085919 0.047589086
0.00091118552 0.015777729 0.045327798
0.0029955336 0.016928632 0.048942905
0.0050785076 0.016918732 0.048945926
0.0061189346 0.016981525 0.047738809
0.0078643039 0.017584387 0.047928009
0.010966811 0.017082488 0.048896264
0.010786957 0.015029119 0.048011206
0.014657088 0.018034562 0.04791503
0.016975084 0.016848633 0.048967175
0.018987983 0.017030749 0.048911944
0.021018792 0.017051902 0.04890554
0.022117814 0.01633575 0.048006985
0.02605281 0.016574036 0.047193531
0.026297154 0.017198589 0.047351886
0.02899068 0.017028281 0.048912697
0.030955961 0.017028758 0.048912551
0.032946691 0.016989604 0.048924427
0.03623943 0.015875682 0.046798006
0.035454746 0.016170001 0.048270948
0.038926702 0.016904408 0.048950262
0.040767368 0.016620273 0.046836041
0.043521576 0.017477624 0.048317213
0.044426668 0.016075233 0.0479878
0.047033809 0.016977176 0.04892819
0.04902203 0.016787237 0.047524352
0.050240539 0.016389322 0.048273161
0.053110387 0.016420513 0.048932139
0.0529746 0.017373215 0.048358541
0.056054499 0.01711705 0.047729865
0.059075639 0.016937466 0.048940234
0.056576055 0.017270574 0.04701186
0.063089542 0.017083259 0.04889603
0.06480702 0.016995145 0.048922755
0.066967718 0.017015729 0.048916511
0.067551665 0.014505538 0.046810031
0.070000008 0.016936053 0.048535239
-0.069115259 0.01881136 0.048332199
-0.066039249 0.018021597 0.047591116
-0.065209664 0.018683346 0.047633655
-0.061767329 0.018203301 0.048260294
-0.061094236 0.019250698 0.04766158
-0.057005152 0.01913191 0.048182782
-0.057126608 0.019047553 0.048299827
-0.051703431 0.018840423 0.04601635
-0.049062688 0.018777959 0.045435678
-0.04915908 0.018534768 0.047617592
-0.047110245 0.018592143 0.046856485
-0.043567989 0.01843372 0.046821147
-0.0450234 0.019023096 0.048307762
-0.042997103 0.018869139 0.048354324
-0.038260877 0.017871499 0.046764083
-0.03904542 0.018947907 0.04833037
-0.036626492 0.018192362 0.044444486
-0.035163097 0.019123241 0.047396943
-0.032253459 0.018006373 0.045982681
-0.030117735 0.019553006 0.04649451
-0.027724665 0.017990926 0.047021825
-0.027174851 0.018049784 0.048016023
-0.025549728 0.018881422 0.047091655
-0.022060916 0.01825648 0.047319554
-0.019247178 0.018739138 0.048103001
-0.019001752 0.018939141 0.048332993
-0.016865749 0.018415112 0.047121599
-0.016158396 0.017753236 0.048036292
-0.012896335 0.01760505 0.046211891
-0.010555539 0.019248251 0.04739375
-0.0077300845 0.01841565 0.048347507
-0.0073381728 0.017859876 0.047882218
-0.0051156906 0.01888361 0.048349805
-0.002897409 0.01832745 0.047085032
-0.0010910181 0.018870177 0.048354119
0.00041058799 0.019417146 0.048006624
0.0040164357 0.01874226 0.047166537
0.0050034146 0.018912885 0.048340935
0.0077378326 0.017800974 0.047685746
0.00991436 0.019566335 0.047463261
0.0099899769 0.01819244 0.047798511
0.013217815 0.019276805 0.047237393
0.01508586 0.018462893 0.048349176
0.017095506 0.019044738 0.048300501
0.018542575 0.018347388 0.047060076
0.02098033 0.018959494 0.04832672
0.021604246 0.018409444 0.045580175
0.025657538 0.019110851 0.048072841
0.027202288 0.017379271 0.045553572
0.030222628 0.018644042 0.046758153
0.029663377 0.018280102 0.04620263
0.03259746 0.017658332 0.046452954
0.035250265 0.018460365 0.046733864
0.037426852 0.018371673 0.04832818
0.038700365 0.019047255 0.046733577
0.04102413 0.019123238 0.048276614
0.042426124 0.018392101 0.046009187
0.041829661 0.018150475 0.046742421
0.047385741 0.018227099 0.048234288
0.045830738 0.017552167 0.046611916
0.048900466 0.017988738 0.047255371
0.051891584 0.01797446 0.047696523
0.052231297 0.017422421 0.045068003
0.056872014 0.018133305 0.048036538
0.058510106 0.018443482 0.047072232
0.059832837 0.0180759 0.046919513
0.061271623 0.017970353 0.0471466
0.064955793 0.018974517 0.048321981
0.067087412 0.018980147 0.048320245
0.068452604 0.018357802 0.047111031
-0.069175795 -0.012575998 0.050249286
-0.065885752 -0.0134816 0.04818508
-0.065020032 -0.012800452 0.05019515
-0.060445927 -0.013465609 0.049540251
-0.059572197 -0.013638404 0.04882526
-0.059094351 -0.012782334 0.050200664
-0.057052609 -0.012702153 0.050224997
-0.054113775 -0.013795762 0.048721116
-0.050526857 -0.013191441 0.049498148
-0.050923698 -0.012792426 0.050197605
-0.04897188 -0.012778655 0.050201774
-0.046961602 -0.012713507 0.05022154
-0.043346819 -0.01285029 0.050167475
-0.04301611 -0.012635004 0.050245367
-0.039508663 -0.012809057 0.047665801
-0.03967673 -0.011746963 0.049928922
-0.037023008 -0.012724731 0.050218154
-0.035047978 -0.012797026 0.050196204
-0.02989408 -0.010391869 0.047151133
-0.031068873 -0.01260975 0.050253034
-0.029100372 -0.012720908 0.050219305
-0.027036672 -0.012763502 0.050206374
-0.024981901 -0.012736192 0.050214659
-0.021101929 -0.011900562 0.049848508
-0.019209376 -0.012969772 0.050124351
-0.018305883 -0.01223421 0.047894869
-0.017675284 -0.013145582 0.04870199
-0.015926974 -0.011508492 0.049743403
-0.012912253 -0.012854973 0.050178617
-0.00988279 -0.013309922 0.048176687
-0.0094738258 -0.013278263 0.049803413
-0.007768881 -0.012009195 0.04815352
-0.0041017942 -0.011744276 0.04981716
-0.0029275015 -0.011939186 0.047893193
-3.4954272e-05 -0.011743802 0.048974343
0.00093239662 -0.012718519 0.050220028
0.0030734648 -0.01272387 0.050218403
0.0048367688 -0.012722477 0.050218835
0.0072416989 -0.012731371 0.050216127
0.011087398 -0.012589261 0.048533022
0.010010347 -0.014126874 0.04887912
0.01285469 -0.012751474 0.050210025
0.014865915 -0.012666593 0.050235778
0.016979732 -0.012729209 0.050216794
0.0164828 -0.01291333 0.049353208
0.01867591 -0.010138769 0.047740906
0.020250438 -0.012426352 0.047255617
0.024990749 -0.012696783 0.050226625
0.027034931 -0.012654214 0.050239544
0.029139923 -0.012791995 0.050197732
0.029471178 -0.010809197 0.047381312
0.032346461 -0.011097434 0.04884639
0.03497453 -0.012688531 0.050229128
0.037044182 -0.012743417 0.050212465
0.039783064 -0.01274033 0.050052073
0.041049715 -0.012768449 0.050204881
0.04293637 -0.012755683 0.050208744
0.043053739 -0.011501995 0.049893372
0.047840156 -0.011994046 0.049289454
0.046462912 -0.011439909 0.043247323
0.049411438 -0.010915074 0.048912916
0.053044103 -0.012797088 0.050196189
0.053708129 -0.011938069 0.048618935
0.05471652 -0.013170852 0.050027892
0.058247831 -0.012517272 0.048275854
0.056225356 -0.010602763 0.048047304
0.063017644 -0.012757058 0.05020833
0.063798472 -0.011579257 0.049917072
0.0646789 -0.011595483 0.048811451
0.069089621 -0.012691109 0.050216872
-0.066580035 -0.011639999 0.049781524
-0.064428017 -0.011082992 0.048126202
-0.065182701 -0.011152902 0.05069387
-0.060530648 -0.011565169 0.049302556
-0.060068157 -0.011115333 0.049203701
-0.054526277 -0.011251769 0.047120553
-0.054704279 -0.010641575 0.047930058
-0.054183703 -0.0095841195 0.049174942
-0.051129982 -0.0091764079 0.049661357
-0.04922663 -0.010675869 0.048986651
-0.047064561 -0.011631371 0.049400918
-0.04439868 -0.010678704 0.049267702
-0.045464683 -0.011312149 0.050476801
-0.041309569 -0.010617514 0.050127205
-0.040468931 -0.010024535 0.049616266
-0.0376864 -0.010615237 0.049111459
-0.035877801 -0.011081603 0.050715912
-0.03491446 -0.011072202 0.050719019
-0.033034742 -0.010963024 0.050751157
-0.030021671 -0.011130029 0.050700635
-0.0268363 -0.0098183788 0.047388617
-0.026957342 -0.010993109 0.050742161
-0.02585903 -0.011111795 0.049208775
-0.022873905 -0.011027341 0.050732195
-0.020862244 -0.010936763 0.050759658
-0.019590557 -0.011495125 0.050098926
-0.017501846 -0.010257809 0.050398469
-0.014966651 -0.012911132 0.045102648
-0.013566838 -0.011536446 0.045831654
-0.010996302 -0.011058445 0.050722335
-0.0072158347 -0.010492411 0.049332354
-0.0070359753 -0.010526787 0.04774091
-0.0052211494 -0.011030423 0.050731611
-0.0019910885 -0.010983291 0.049516063
-0.00093306479 -0.011097965 0.050711453
0.00070446584 -0.010088598 0.048639458
0.0032359667 -0.010188299 0.049641024
0.0055133863 -0.011838194 0.047735304
0.0093764886 -0.0097873043 0.04807438
0.0089401221 -0.011057416 0.050723162
0.010776254 -0.0099189449 0.049813055
0.012427673 -0.0099280411 0.048745312
0.015160659 -0.010942581 0.050758205
0.016501123 -0.011178605 0.048741169
0.018880546 -0.011044236 0.050727367
0.020973308 -0.010961992 0.050752077
0.020405537 -0.0098900395 0.048547182
0.025072673 -0.010951283 0.050755087
0.022644019 -0.0097874505 0.04886141
0.028930714 -0.011051304 0.050725553
0.029901991 -0.010282385 0.049653057
0.033026103 -0.010952247 0.050754555
0.035062291 -0.010997011 0.050741315
0.036963571 -0.010906978 0.050767809
0.038529016 -0.010462676 0.049602702
0.040028218 -0.011514231 0.050353646
0.043018732 -0.01102483 0.050732881
0.043352194 -0.010392385 0.049962696
0.045647535 -0.010169642 0.04800478
0.04901582 -0.011194552 0.050682269
0.04802382 -0.010860948 0.046976119
0.053031214 -0.010982686 0.050746243
0.055192657 -0.010459326 0.050387513
0.053338643 -0.011439175 0.04761925
0.056899179 -0.010511839 0.050143827
0.060931303 -0.011048617 0.050725721
0.063012436 -0.011007367 0.050738398
0.064594463 -0.010305069 0.049541954
0.06608443 -0.011627887 0.050015733
0.067189328 -0.0098096821 0.049238469
-0.068981193 -0.0085563976 0.049062937
-0.065586112 -0.0079254163 0.050507635
-0.065070786 -0.0088239051 0.050180644
-0.061319541 -0.0095303729 0.050269425
-0.060938939 -0.0089448821 0.051119048
-0.056538723 -0.0080063418 0.049831722
-0.053435929 -0.0089861201 0.049567111
-0.055117454 -0.0083662644 0.050958343
-0.051300928 -0.0083651384 0.049233828
-0.048082013 -0.0097716199 0.048752535
-0.047042094 -0.0090732845 0.050569732
-0.047027156 -0.0089756427 0.051116019
-0.044051725 -0.0094281808 0.050890326
-0.043488257 -0.0083321426 0.050318565
-0.040939197 -0.0090312976 0.051110554
-0.038370065 -0.010063658 0.050635874
-0.036979146 -0.0090500498 0.05110871
-0.032703608 -0.009108711 0.049464896
-0.032282565 -0.0093823681 0.050898746
-0.031040449 -0.0090125445 0.05111238
-0.029151279 -0.0089674825 0.05111682
-0.027019177 -0.0089412406 0.051119398
-0.023525702 -0.0085123768 0.05006716
-0.023041189 -0.0090477876 0.051108934
-0.020928629 -0.0089761456 0.051115971
-0.018868877 -0.007905351 0.049042843
-0.017890314 -0.0091446089 0.050047275
-0.013463922 -0.0085008116 0.049499068
-0.011695028 -0.0097950101 0.049357995
-0.0097586326 -0.0097158253 0.048973463
-0.0089657698 -0.0082915332 0.049369395
-0.007011856 -0.0090069622 0.051112946
-0.0052456199 -0.0083022192 0.047254361
-0.0033731298 -0.0077809137 0.049333271
-0.0010706002 -0.0091448883 0.051099371
0.0013386274 -0.0097355535 0.050372094
0.0046666968 -0.010444659 0.050217018
0.0049295584 -0.0089034932 0.05112312
0.0060482547 -0.0093530212 0.050794408
0.0087686712 -0.0081044948 0.050161209
0.010201178 -0.008063416 0.050109625
0.013737623 -0.0090596927 0.049707402
0.013742922 -0.010047651 0.049079809
0.016857382 -0.0094247209 0.050001986
0.017262122 -0.0082589323 0.049805176
0.021022838 -0.0088330861 0.051130041
0.021586929 -0.0081470525 0.049924351
0.025590619 -0.0096144844 0.050251637
0.027117351 -0.0089371167 0.051119816
0.029278202 -0.0080823842 0.047955487
0.030939579 -0.009069439 0.051106796
0.031909741 -0.0093963724 0.049893469
0.034848966 -0.0096711647 0.04978843
0.036085505 -0.0095615406 0.047866933
0.036830001 -0.0084154578 0.050384972
0.040987752 -0.0090155574 0.051112097
0.040564355 -0.0082143759 0.049384784
0.04230177 -0.0078130234 0.0490181
0.04743512 -0.0095595354 0.050545968
0.049024735 -0.0089302454 0.051120482
0.050657589 -0.0080944868 0.047572341
0.052949753 -0.0089985719 0.051113766
0.055118203 -0.0085729286 0.05088181
0.054883119 -0.0093943039 0.047498871
0.057683676 -0.0080859847 0.049569454
0.058615904 -0.0077411854 0.048536364
0.062961765 -0.0089885676 0.051114757
0.064944677 -0.0089946119 0.051114153
0.066909306 -0.0089577902 0.051117782
0.067869104 -0.0095046451 0.050413411
0.070000008 -0.0095840711 0.050230682
-0.066932335 -0.0070932144 0.050964341
-0.066980205 -0.0069407485 0.051316191
-0.062174421 -0.007824976 0.05025344
-0.061000146 -0.0068026963 0.051003896
-0.057701372 -0.0067885425 0.050356489
-0.059154473 -0.0069407583 0.051316179
-0.055000138 -0.0069597717 0.049998116
-0.055230003 -0.0066004307 0.051050492
-0.053095642 -0.0069524534 0.051315036
-0.051068608 -0.0057214047 0.048667606
-0.049055934 -0.0070791095 0.051302582
-0.046980932 -0.0071120504 0.051299334
-0.042755563 -0.0067845704 0.050192934
-0.039148126 -0.0074153477 0.048319701
-0.039929323 -0.006864524 0.048657522
-0.038917113 -0.0069017359 0.05132002
-0.036171511 -0.0069565037 0.0508455
-0.033925105 -0.0057625775 0.049413774
-0.032123737 -0.00643706 0.051170923
-0.030859055 -0.0070681521 0.051303655
-0.027709763 -0.0058581694 0.050207429
-0.027129326 -0.0061985799 0.051032759
-0.023345927 -0.0061339121 0.050010271
-0.022269133 -0.0063579814 0.050936431
-0.021040276 -0.0070835999 0.051302128
-0.019515309 -0.0066189794 0.049666274
-0.015295814 -0.0063874139 0.050344225
-0.013499692 -0.0067977579 0.047880515
-0.01320544 -0.0067840572 0.049980979
-0.0098721366 -0.0070965323 0.051286519
-0.0089507401 -0.0065765432 0.049935199
-0.0072179767 -0.0074667758 0.050761003
-0.0047994549 -0.0056247897 0.049548384
-0.0018495151 -0.0065247696 0.050747402
0.00047046784 -0.0078163799 0.049990565
0.0013490843 -0.0074348208 0.050123688
0.0030381996 -0.0071210326 0.051298451
0.0049496931 -0.0068421676 0.051325873
0.0071110199 -0.00696838 0.051313467
0.0085808858 -0.007011896 0.049851738
0.011209418 -0.006175213 0.050923623
0.012753725 -0.0065961406 0.050066061
0.013545007 -0.0063277655 0.049789142
0.016890001 -0.0070380159 0.05130662
0.019456383 -0.0073405616 0.050510634
0.021716515 -0.0070159272 0.050597172
0.022874087 -0.0070473342 0.0513057
0.023697672 -0.0071634641 0.051076062
0.027212407 -0.0076073846 0.049002487
0.029645626 -0.0067234193 0.04901392
0.028222799 -0.0064465306 0.04894973
0.032984763 -0.0069446759 0.051315807
0.032813448 -0.0068631032 0.047692768
0.037619133 -0.0069306167 0.049741637
0.038765509 -0.0076789064 0.050856251
0.040449474 -0.0064321063 0.051153842
0.042769793 -0.0073726228 0.051019806
0.042930171 -0.0069443537 0.049534023
0.045847867 -0.0076616039 0.050821304
0.047838408 -0.0074214004 0.050259396
0.049201857 -0.0050923862 0.049656704
0.051184263 -0.0072883046 0.050382353
0.053974707 -0.0061269724 0.050623868
0.057292808 -0.0072860536 0.050836757
0.059014037 -0.0070776558 0.051302709
0.060955174 -0.007075794 0.05130291
0.063022256 -0.0071797464 0.051292669
0.064990781 -0.0069670384 0.051313609
0.066386551 -0.0070034233 0.048223432
0.069439434 -0.0071022464 0.051043577
0.070000008 -0.0060270559 0.051062174
-0.069410145 -0.005040634 0.051191323
-0.06700559 -0.005046763 0.051502541
-0.064595044 -0.0044106045 0.050223574
-0.063108578 -0.0050198259 0.051505197
-0.060042039 -0.0039846776 0.049094994
-0.058518179 -0.0045530782 0.051406588
-0.057125002 -0.0048388937 0.051523004
-0.052520949 -0.0045817168 0.050187416
-0.053603996 -0.0051010903 0.051122926
-0.051203575 -0.0049361428 0.051513456
-0.049006354 -0.004982363 0.051508892
-0.047064554 -0.0049643219 0.051510647
-0.045129456 -0.0051729567 0.047474358
-0.042982846 -0.0048818542 0.051518776
-0.040647801 -0.0051059774 0.049089883
-0.037745796 -0.0049185078 0.049668472
-0.034640554 -0.0061916402 0.048837014
-0.035095897 -0.0049599526 0.05151109
-0.032974098 -0.0049188021 0.05151514
-0.031006617 -0.0049352846 0.051513527
-0.025666634 -0.0058843605 0.048718963
-0.027093181 -0.0050404253 0.049850732
-0.024385268 -0.0041480241 0.049998514
-0.021596266 -0.0057934541 0.050178725
-0.02051975 -0.0052042161 0.049550775
-0.018934067 -0.0050147618 0.051505677
-0.017043777 -0.0049949186 0.051507637
-0.015004043 -0.0050447681 0.051502734
-0.013113715 -0.0047960533 0.051527224
-0.0097706737 -0.0055573708 0.050196398
-0.010556369 -0.0036779253 0.049178563
-0.0080552576 -0.0057475823 0.051048078
-0.0039433478 -0.0051255729 0.046881706
-0.0039237347 -0.0040140585 0.050047811
-0.0010328072 -0.0047174641 0.049333073
0.00092044962 -0.0050757993 0.051499676
0.0029249599 -0.0050476622 0.051502459
0.0049543446 -0.005016672 0.051505517
0.0072819134 -0.0050212797 0.049800146
0.0090280091 -0.0048785484 0.051519107
0.0088242684 -0.0058208467 0.049230281
0.013939236 -0.005192114 0.049924109
0.014947997 -0.0049198223 0.051515043
0.016977506 -0.0048575322 0.051521171
0.018556163 -0.0053873458 0.05137141
0.018517654 -0.0031530731 0.048212472
0.021767007 -0.0055961697 0.049472392
0.025739994 -0.0054562436 0.050706986
0.027048774 -0.0042542983 0.050322801
0.025914242 -0.00448702 0.046842318
0.03027218 -0.0053814258 0.048775181
0.031745486 -0.005116059 0.051472217
0.034261033 -0.0053094537 0.048880275
0.034216046 -0.0046414263 0.049738076
0.039034013 -0.0050126738 0.051505908
0.040666819 -0.0053348993 0.049606577
0.042921513 -0.0049824752 0.05150887
0.044881448 -0.0044275355 0.051326677
0.04674916 -0.0042442479 0.051009756
0.048925243 -0.0049526263 0.051511828
0.050960209 -0.0048707034 0.051519871
0.053097129 -0.0049605141 0.051511038
0.053010315 -0.0042437599 0.049921267
0.057001978 -0.0049977424 0.051507372
0.057276893 -0.0045342166 0.050750233
0.06108233 -0.0058839843 0.049956165
0.062941827 -0.0049652946 0.051510561
0.064341865 -0.0045749773 0.049931586
0.067047246 -0.004926702 0.051514357
0.06806951 -0.0048123528 0.048700012
0.070000008 -0.0059591732 0.050234452
-0.069341734 -0.003347592 0.051029623
-0.066882655 -0.0036144792 0.050336797
-0.062713832 -0.0038734504 0.050765004
-0.058768794 -0.0021213584 0.04989703
-0.059125416 -0.001604492 0.050283249
-0.059012618 -0.0030866049 0.051695723
-0.056919865 -0.0037324247 0.051014852
-0.054933034 -0.0028553416 0.051718522
-0.053321086 -0.0027943142 0.05164782
-0.047710169 -0.0018297448 0.050212298
-0.048816286 -0.00257197 0.050215136
-0.045611277 -0.0029533715 0.05125403
-0.042059049 -0.0046371836 0.049911588
-0.041429613 -0.0025099507 0.051392436
-0.039381843 -0.003374177 0.051067594
-0.037194889 -0.0030010487 0.049653709
-0.036856491 -0.0029846914 0.05002835
-0.035054397 -0.003851823 0.050563272
-0.030623887 -0.0029903504 0.050338935
-0.0310397 -0.003148152 0.051689651
-0.028910546 -0.0029870295 0.051705539
-0.025815884 -0.0035014527 0.050207909
-0.021327501 -0.0026008941 0.048972353
-0.023534492 -0.0022817964 0.051052265
-0.020340459 -0.0036771654 0.050842192
-0.019027475 -0.0029126005 0.051712867
-0.015822895 -0.0021785935 0.05051183
-0.014031399 -0.003238173 0.050016608
-0.0096173016 -0.0029799675 0.049826585
-0.0100938 -0.0028350449 0.049905319
-0.0090253456 -0.0030649633 0.05169785
-0.0051638531 -0.0026684576 0.048794579
-0.0033623879 -0.0040243287 0.04909429
-0.0019735962 -0.0030195869 0.048251554
-0.00089249416 -0.0030912654 0.051695257
0.0019667083 -0.0021783283 0.050839595
0.0035684051 -0.0039021824 0.050883252
0.0046719364 -0.0022169009 0.050726525
0.0077075297 -0.0037810772 0.048244599
0.0079249442 -0.0023448684 0.050406802
0.011222173 -0.0028493493 0.051631007
0.012845131 -0.0030061561 0.050895456
0.014880341 -0.0030497233 0.051699363
0.018348237 -0.0027951237 0.049574081
0.016794665 -0.003983465 0.048626363
0.020124773 -0.0022633651 0.050347798
0.023472566 -0.0037525487 0.050399069
0.025188183 -0.0029429505 0.051709883
0.02752191 -0.0036514553 0.050174225
0.029260064 -0.0028260341 0.051377106
0.03089121 -0.0029191771 0.051712226
0.033489749 -0.0035380917 0.050942648
0.032920092 -0.0046234708 0.048521001
0.037137758 -0.0029590377 0.051708292
0.038901668 -0.0031373515 0.051690724
0.040858567 -0.0030271143 0.051701583
0.041745011 -0.0023500531 0.049835857
0.043969836 -0.0023046189 0.050327539
0.046608012 -0.002315351 0.051041283
0.047734182 -0.0036607373 0.051084366
0.050105456 -0.0020375354 0.050276257
0.052899312 -0.0029692515 0.05170729
0.054980408 -0.0028866373 0.051715441
0.056946438 -0.0029772585 0.051706493
0.056591969 -0.00055433484 0.050027851
0.060776748 -0.0023483334 0.049523316
0.06154564 -0.0037338908 0.051239949
0.063219763 -0.0026557983 0.049976394
0.063777007 -0.001497224 0.05045823
0.065101795 -0.0025079499 0.04840121
0.070000008 -0.0033198269 0.050570808
-0.066678457 -0.0010520908 0.048744388
-0.066889144 -0.00093130034 0.051908195
-0.063755207 -0.0018458592 0.051338661
-0.063074343 -0.00075736578 0.051741365
-0.059561308 -0.0015492231 0.05099044
-0.058058616 -0.00065285165 0.050342407
-0.057020336 -0.0010347324 0.051897991
-0.053112883 -0.00063817785 0.051835891
-0.05266124 -0.00010169068 0.049896494
-0.048873056 0.00112898 0.050164733
-0.047457285 -9.0021989e-05 0.04939422
-0.046852622 -0.0013907672 0.050668076
-0.044633128 -0.0025940251 0.049055122
-0.041827306 -0.00092004117 0.050558235
-0.041148525 -0.00092461437 0.051908847
-0.038902026 -0.0010286558 0.051898595
-0.035253342 -0.00066466664 0.050831277
-0.033216279 -0.0017105588 0.051446725
-0.032967716 -0.0010104438 0.051900391
-0.03053542 -0.00045983453 0.051327813
-0.029175146 -0.00023924709 0.051502079
-0.025853021 -0.0013862813 0.050830763
-0.023498466 -0.0015830323 0.050876789
-0.023675209 -0.00059548183 0.05035153
-0.019121002 -0.0002243137 0.049764849
-0.019498548 -0.0013611537 0.05182004
-0.016871426 -0.00096827943 0.050141837
-0.014960699 -0.00095220876 0.05190612
-0.013204415 -0.00097344985 0.051904038
-0.011502228 -0.00040137806 0.051655762
-0.0073700021 -0.0010160714 0.050096877
-0.0032935659 -0.00077156234 0.048537027
-0.0058078212 -0.00061869348 0.051786222
-0.00382319 -0.00015514402 0.049016893
0.0010637116 -0.002015216 0.04965869
0.0011484262 -0.0010042283 0.051900994
0.0043352684 -0.00062556705 0.050279956
0.0049919486 -0.00095784175 0.051905565
0.0086329849 -0.0014604107 0.049470618
0.0082493825 -0.00088956882 0.050172735
0.0092509445 -0.0014900091 0.049623661
0.013906205 -0.00082393672 0.05036727
0.015327275 -0.0016357828 0.050503608
0.017013639 -0.0010570805 0.051895801
0.01707501 -0.00096862274 0.04953447
0.01888888 -0.0011546579 0.049914818
0.022966756 -0.0011518429 0.05188645
0.024479141 -0.00063493161 0.050670538
0.026994761 -0.0010216999 0.05189928
0.027813649 -0.001944739 0.050176714
0.031123342 -0.0010800217 0.051893543
0.033039749 -0.0010163831 0.051899806
0.034877166 -0.00071283261 0.051819827
0.034941528 -0.0010368245 0.049976178
0.03969074 -0.00016716184 0.049876958
0.041080888 -0.0010040223 0.051901024
0.042902935 -0.0010580061 0.0518957
0.044775739 -9.4211122e-05 0.050846387
0.044529919 -0.0021005436 0.051116955
0.049330086 -0.0018754415 0.05088678
0.050927695 -0.0010121727 0.051900215
0.051495817 -0.0015690705 0.050520137
0.054972745 -0.0010240456 0.051899049
0.057058685 -0.0010376591 0.051897712
0.059019692 -0.0010101101 0.05190042
0.059552003 -0.0023159275 0.049132232
0.06058684 -0.0015182646 0.049217999
0.064233199 -0.0014937026 0.050600789
0.064829566 -0.0008019419 0.051229727
0.068405479 -0.00056770176 0.050837174
0.070000008 -0.0013141929 0.050517865
-0.067772865 0.0008428843 0.050604019
-0.065443017 0.000127733 0.050663602
-0.06514854 0.00091800536 0.051909499
-0.06285473 0.00098766945 0.051902633
-0.057576813 0.001804479 0.050588395
-0.059084624 0.00097274384 0.051904112
-0.055737115 0.00079053134 0.050612614
-0.051368345 -0.00051941792 0.050500821
-0.048499137 0.00088653772 0.048606802
-0.050882258 0.00095988158 0.051905375
-0.047509085 0.0016111543 0.051460419
-0.046980169 0.0019300211 0.049720913
-0.041794475 0.00042281716 0.047100633
-0.040954906 0.002375301 0.051243257
-0.040728033 0.0016620359 0.050968528
-0.039028674 0.00090971839 0.051910326
-0.037080903 0.00096909329 0.05190447
-0.033966035 0.0015941925 0.050809514
-0.032995652 0.0011882787 0.051882852
-0.028756315 0.00021797934 0.050449736
-0.029073693 0.00098934665 0.051902477
-0.025280524 0.00036345559 0.050720245
-0.024368629 0.00026794855 0.050498925
-0.022976069 0.0010249177 0.051898967
-0.021137396 0.0010904352 0.051892512
-0.018952334 0.00096035801 0.051905323
-0.01651494 0.00038031829 0.050433975
-0.015689889 0.00047972461 0.050249554
-0.011185757 0.0008193804 0.050325319
-0.010004973 0.0015976249 0.051702775
-0.010138774 0.00050087628 0.051813658
-0.0067716166 0.001333179 0.048406959
-0.0052513969 0.0014119965 0.050579902
-0.0014179138 0.0020999489 0.050189782
-0.00022010184 0.00080779818 0.051882055
0.00051808998 0.00048888422 0.0508743
0.0033824956 0.0011328671 0.048985492
0.0050204792 0.0010775756 0.051893767
0.0070452653 0.0010202774 0.051899415
0.0091231 0.0014862684 0.051635627
0.010972676 0.00025022743 0.051447671
0.012685724 0.00019483615 0.050054237
0.015435302 0.001838435 0.048633367
0.016818926 0.00073277764 0.050775871
0.019007575 0.0011056327 0.051890995
0.020476189 0.0010039762 0.050233841
0.023186488 0.00024531042 0.050757982
0.024674237 0.00061384158 0.050510652
0.026963314 0.0010311803 0.051898342
0.028157601 0.0017782465 0.048902404
0.031514034 0.0014072508 0.050112322
0.030945761 0.0013038423 0.050887141
