# .PCD v0.7 - Point Cloud Data file format
VERSION 0.7
FIELDS x y z
SIZE 4 4 4
TYPE F F F
COUNT 1 1 1
WIDTH 1272
HEIGHT 1
VIEWPOINT 0 0 0 1 0 0 0
POINTS 1272
DATA ascii
-0.033109602 0.037079364 -0.063999966
-0.030909218 0.036978457 -0.063999981
-0.028098898 0.036748853 -0.063999981
-0.026992001 0.036785603 -0.063999966
-0.024912018 0.036917485 -0.063999973
-0.022968708 0.036957458 -0.06400001
-0.020984998 0.036892049 -0.063999958
-0.019055005 0.037167113 -0.063999973
-0.017029803 0.037033301 -0.063999973
-0.015031375 0.037010957 -0.063999973
-0.012944832 0.037037537 -0.063999973
-0.012004218 0.036166519 -0.063999966
-0.0091451732 0.037026733 -0.063999988
-0.0079543674 0.035525147 -0.063999973
-0.0049635014 0.03694497 -0.063999973
-0.0035016951 0.035656702 -0.063999973
-0.00072688592 0.034967706 -0.063999981
0.0010719913 0.036957253 -0.063999958
0.0029397197 0.036969472 -0.063999981
0.0049783252 0.03700874 -0.063999988
0.005623851 0.035780411 -0.063999973
0.0090045081 0.037011813 -0.063999951
0.010938992 0.037033293 -0.063999996
0.01251482 0.037141658 -0.063999973
0.015056924 0.037018515 -0.063999996
0.016991315 0.035639163 -0.063999966
0.019002313 0.036982741 -0.063999966
0.020968951 0.036848843 -0.063999958
0.022977928 0.036839899 -0.063999951
0.02507565 0.03706383 -0.063999973
0.027046502 0.037123863 -0.063999966
0.029489754 0.035760611 -0.063999966
0.031023243 0.036922146 -0.063999966
0.03291326 0.036978427 -0.063999973
0.035019405 0.036954671 -0.063999973
0.037152242 0.036964968 -0.063999966
0.039092004 0.03692684 -0.063999951
0.041117586 0.036936443 -0.063999958
0.042949531 0.036966164 -0.063999973
0.045024864 0.037047312 -0.063999981
0.046955418 0.037000958 -0.063999988
0.048972569 0.037039664 -0.063999981
0.050986834 0.037002698 -0.063999973
0.052886669 0.036542218 -0.063999973
0.054924846 0.037054088 -0.063984439
0.056000002 0.036899842 -0.063006185
-0.056000005 0.03919227 -0.063368082
-0.055430342 0.038159873 -0.063513041
-0.053154789 0.039016031 -0.063999966
-0.050927028 0.038997039 -0.063999951
-0.049092013 0.039049756 -0.063999958
-0.046986677 0.03903129 -0.063999973
-0.045058865 0.039025553 -0.063999958
-0.042889234 0.038918309 -0.063999966
-0.040958293 0.039023366 -0.063999981
-0.038877562 0.039208278 -0.063999966
-0.034775056 0.03847532 -0.063999981
-0.035117745 0.039057836 -0.063999958
-0.032895152 0.038877375 -0.063999951
-0.030945359 0.039012123 -0.063999973
-0.028953919 0.038885381 -0.063999981
-0.027031483 0.039043702 -0.063999958
-0.02389707 0.038329694 -0.063999966
-0.022983691 0.03885974 -0.064000003
-0.021004263 0.039114427 -0.063999973
-0.018976869 0.038980588 -0.063999973
-0.01681252 0.038942177 -0.063999973
-0.014969143 0.038995717 -0.063999981
-0.013566224 0.03879584 -0.063999981
-0.011217348 0.038993403 -0.063999981
-0.008986745 0.038876314 -0.063999973
-0.0070708268 0.038877003 -0.063999973
-0.0051193903 0.039048713 -0.063999973
-0.0030410255 0.039061975 -0.063999958
-0.0011002 0.038958505 -0.063999973
0.00094342622 0.039024428 -0.063999973
0.0030381056 0.039073206 -0.063999966
0.0050778305 0.039117269 -0.063999966
0.0071761855 0.038901281 -0.063999951
0.0094226459 0.038147762 -0.063999973
0.01099005 0.039004639 -0.063999951
0.012740961 0.039082617 -0.063999966
0.015034257 0.039041135 -0.063999966
0.016997904 0.038971439 -0.063999958
0.018918842 0.03908227 -0.063999966
0.020982919 0.03916106 -0.063999951
0.02300513 0.038958292 -0.063999981
0.024957735 0.03903183 -0.063999958
0.026747426 0.039086267 -0.063999966
0.029148446 0.03900991 -0.063999966
0.031035148 0.038911793 -0.063999966
0.03297019 0.039136991 -0.063999958
0.03502176 0.03906098 -0.063999966
0.036986616 0.038973507 -0.063999958
0.03847485 0.03764458 -0.063999966
0.040900003 0.038919128 -0.063999958
0.042936463 0.038963642 -0.063999966
0.045051046 0.039024115 -0.063999973
0.04704912 0.038829751 -0.063999981
0.048950933 0.038989775 -0.063999958
0.050858337 0.039022639 -0.063999958
0.052933753 0.038818426 -0.063999958
0.055060055 0.039134473 -0.063895933
0.054333545 0.037997339 -0.06293831
-0.056000005 0.041035891 -0.063345045
-0.055476043 0.040959723 -0.063548848
-0.052943598 0.040969342 -0.063999958
-0.049529023 0.039383885 -0.063999966
-0.049054246 0.041055411 -0.063999951
-0.046832208 0.04111943 -0.063999951
-0.044969946 0.041084182 -0.063999951
-0.043125715 0.040882315 -0.063999996
-0.041058738 0.040979579 -0.063999988
-0.039161075 0.040873263 -0.064000003
-0.037011739 0.040874183 -0.063999966
-0.035026167 0.041160651 -0.063999981
-0.032924246 0.040975779 -0.063999943
-0.031068074 0.041055031 -0.063999973
-0.028998148 0.040973254 -0.063999966
-0.02720443 0.041054785 -0.063999988
-0.025066152 0.040996563 -0.063999981
-0.023068691 0.04087596 -0.063999973
-0.020902768 0.041105736 -0.063999981
-0.019558175 0.04012844 -0.063991122
-0.016977081 0.041045636 -0.063999988
-0.015480676 0.039992258 -0.063999981
-0.013021464 0.040970951 -0.063999981
-0.011157274 0.040847741 -0.063999981
-0.0090918643 0.041055441 -0.063999973
-0.0068821921 0.041073062 -0.063999981
-0.0048337481 0.040739972 -0.063999981
-0.0030164393 0.041137215 -0.064000003
-0.0011409171 0.041093569 -0.063999981
0.0010660624 0.040848058 -0.063999981
0.003036526 0.040897224 -0.063999973
0.0054999362 0.039341182 -0.063999958
0.0070408466 0.041013636 -0.063999973
0.0090136947 0.040855195 -0.063999966
0.010785639 0.041166484 -0.063999981
0.012934755 0.040980559 -0.063999966
0.014833874 0.040846575 -0.063999973
0.017027847 0.040902395 -0.063999958
0.019100264 0.041112084 -0.063999951
0.021058403 0.040990487 -0.063999958
0.023053389 0.040799703 -0.063999981
0.025024807 0.041097421 -0.063999951
0.026994951 0.040949669 -0.064000003
0.028958503 0.041057073 -0.063999973
0.031008648 0.040965829 -0.063999951
0.033132996 0.041013625 -0.063999973
0.034316808 0.040818561 -0.063999973
0.035794705 0.039892323 -0.063999973
0.039015464 0.040792517 -0.063999966
0.039842635 0.040850583 -0.063999973
0.043125734 0.041010957 -0.063999958
0.044947188 0.041014452 -0.063999966
0.046958305 0.040953614 -0.063999958
0.048934605 0.041005276 -0.063999988
0.049952239 0.038982913 -0.063999973
0.053131338 0.040973246 -0.063999966
0.055017401 0.041049205 -0.063917294
0.055999998 0.040797066 -0.063059084
-0.056000005 0.043519482 -0.063346453
-0.055453498 0.042718463 -0.063453645
-0.052847467 0.043016266 -0.063999966
-0.050922748 0.042848807 -0.063999966
-0.048988257 0.043005321 -0.063999988
-0.046953157 0.04293149 -0.063999966
-0.045046151 0.04296048 -0.063999973
-0.042885482 0.043042306 -0.063999966
-0.04095697 0.042952798 -0.063999973
-0.0389213 0.043038007 -0.063999951
-0.036742743 0.043068741 -0.063999973
-0.034955528 0.043065179 -0.063999958
-0.033085492 0.043116953 -0.063999973
-0.030843617 0.042960048 -0.063999973
-0.029065736 0.043051876 -0.063999958
-0.02715563 0.042973533 -0.063999973
-0.024987087 0.042982638 -0.063999973
-0.023104154 0.041676641 -0.063999966
-0.021137999 0.042928051 -0.063999988
-0.018386189 0.039406359 -0.063999966
-0.017034132 0.042991914 -0.063999958
-0.015258607 0.042982139 -0.063999996
-0.012951445 0.0428546 -0.063999981
-0.011241485 0.04080452 -0.063999958
-0.0088688461 0.04284934 -0.063999966
-0.0056683328 0.042604815 -0.063999981
-0.0050474298 0.042972747 -0.063999981
-0.0030593022 0.042951219 -0.063999981
-0.0010237138 0.042789232 -0.064000003
0.00097685854 0.043005414 -0.063999981
0.0028609482 0.043083679 -0.063999973
0.0049458528 0.042812031 -0.063999973
0.0070136054 0.043000188 -0.063999951
0.0090485131 0.043061152 -0.063999958
0.011090203 0.043002058 -0.063999981
0.012975765 0.043079551 -0.063999958
0.014946165 0.042932753 -0.063999958
0.017189387 0.043061338 -0.063999951
0.019017542 0.043003313 -0.063999958
0.020977905 0.043189604 -0.063999966
0.022950256 0.043141387 -0.063999966
0.024891 0.041118581 -0.063999973
0.026338749 0.043093488 -0.064000003
0.029004075 0.043110188 -0.063999988
0.029853299 0.042626981 -0.063999958
0.033107832 0.042924765 -0.063999958
0.034933396 0.042874657 -0.063999958
0.037000313 0.043075703 -0.063999951
0.038121689 0.042678088 -0.063999958
0.040873032 0.042929716 -0.063999981
0.043006521 0.042945389 -0.063999973
0.044937149 0.042946856 -0.063999958
0.047012746 0.043003835 -0.063999973
0.049025703 0.043068837 -0.063999973
0.051043238 0.042859569 -0.063999951
0.051583953 0.042788874 -0.063999951
0.055014614 0.042835657 -0.06390699
0.056000002 0.04303892 -0.062908545
-0.056000005 0.044593167 -0.063202895
-0.053371496 0.043969139 -0.063594617
-0.052852038 0.045071714 -0.063999973
-0.050952494 0.044936083 -0.063999951
-0.049030509 0.045009255 -0.063999973
-0.04707941 0.044965755 -0.063999958
-0.043517899 0.043368757 -0.063999958
-0.043050077 0.044953838 -0.063999973
-0.040998995 0.044911385 -0.063999973
-0.039087195 0.044906817 -0.063999973
-0.03694376 0.045008946 -0.063999966
-0.034993812 0.044982757 -0.063999958
-0.033071898 0.045017075 -0.063999973
-0.030922236 0.044842593 -0.063999966
-0.028848572 0.04505904 -0.063999966
-0.026949272 0.045109052 -0.063999996
-0.024283653 0.044806879 -0.063999973
-0.02307993 0.044965092 -0.063999966
-0.020983493 0.044827256 -0.063999958
-0.018991066 0.044987958 -0.063999958
-0.016916228 0.045107827 -0.063999973
-0.015009201 0.044881668 -0.063999966
-0.013789 0.043479227 -0.063999981
-0.011090236 0.045088314 -0.063999958
-0.0090232166 0.044931758 -0.063999958
-0.0076842755 0.043566596 -0.063999973
-0.0047767498 0.044998314 -0.063999973
-0.0029893969 0.04499913 -0.063999966
-0.0010072843 0.045052033 -0.063999981
0.001198196 0.044977222 -0.063999973
0.0029993078 0.045060098 -0.063999966
0.0049895453 0.04502489 -0.063999966
0.0076198368 0.044128958 -0.063999966
0.0091142757 0.044951413 -0.063999966
0.010087173 0.044469848 -0.063999958
0.01305282 0.045046762 -0.063999973
0.014922027 0.045018572 -0.063999951
0.016853781 0.045028619 -0.063999981
0.019554181 0.044782788 -0.063999958
0.020989496 0.04506636 -0.063999951
0.022892557 0.045136977 -0.063999958
0.025121851 0.045023337 -0.063999966
0.027045116 0.045108128 -0.063999973
0.028998716 0.044882346 -0.063999966
0.031082243 0.044982687 -0.063999973
0.033025313 0.044986229 -0.063999966
0.034980543 0.044935107 -0.063999958
0.036924407 0.044927325 -0.063999988
0.038957819 0.045081928 -0.063999966
0.041117825 0.045079064 -0.063999951
0.041973241 0.043031566 -0.063999973
0.043540228 0.045001537 -0.063999966
0.046872247 0.044947606 -0.063999973
0.049035013 0.045057308 -0.063999966
0.049986854 0.043858524 -0.063999958
0.053113818 0.045103073 -0.063999973
0.055081837 0.045130536 -0.063900359
0.055999998 0.045178071 -0.062974572
-0.056000005 0.046937175 -0.063061982
-0.054898739 0.046018291 -0.063490361
-0.053104121 0.046953332 -0.063999988
-0.049687479 0.044371035 -0.064000003
-0.048942152 0.046346825 -0.063999996
-0.047080375 0.046925474 -0.063999958
-0.045106117 0.046959162 -0.064000003
-0.043092273 0.047128569 -0.063999966
-0.040891055 0.046218384 -0.063999973
-0.039053924 0.047095664 -0.063999966
-0.034941304 0.043369737 -0.064000003
-0.03341626 0.046959866 -0.063999981
-0.03286742 0.046875276 -0.063999973
-0.03094483 0.046974961 -0.063999981
-0.027769763 0.045731675 -0.063999988
-0.02551637 0.046590492 -0.063999988
-0.025061795 0.047212422 -0.063999996
-0.023232255 0.046720274 -0.063999981
-0.021066971 0.04697765 -0.063999973
-0.01899456 0.047192652 -0.063999988
-0.017105935 0.046865236 -0.063999973
-0.015006701 0.046971794 -0.063999981
-0.013122955 0.046866555 -0.063999988
-0.010230442 0.046725586 -0.063999973
-0.0089693051 0.047101695 -0.063999988
-0.0069690952 0.046855666 -0.063999966
-0.0049224547 0.047026835 -0.063999966
-0.0019877416 0.046325404 -0.063999958
-0.0010505797 0.046942487 -0.063999973
0.001045404 0.047001634 -0.063999966
0.0028554793 0.046905484 -0.063999951
0.0049878168 0.047070768 -0.063999958
0.0074060122 0.046534315 -0.063999966
0.0090940166 0.046868753 -0.063999951
0.011106091 0.046937857 -0.063999966
0.012910746 0.046899162 -0.063999973
0.013780677 0.046417732 -0.063999958
0.017173231 0.047026735 -0.063999966
0.019632064 0.045376927 -0.063999966
0.021084325 0.047151942 -0.063999951
0.023022765 0.046995353 -0.063999951
0.025090696 0.047144715 -0.063999973
0.026935063 0.046959594 -0.063999966
0.029070877 0.047031466 -0.063999966
0.031149805 0.046931222 -0.063999966
0.032877859 0.04632942 -0.063999966
0.035025734 0.046886444 -0.063999958
0.036968064 0.047015619 -0.063999966
0.038953513 0.046973396 -0.063999973
0.040947486 0.046903759 -0.063999966
0.041916125 0.046384532 -0.063999951
0.045077287 0.046969939 -0.063999973
0.047049608 0.046917494 -0.063999966
0.049016066 0.047190506 -0.063999966
0.051076423 0.046985358 -0.063999973
0.052933335 0.046857465 -0.063999973
0.055117939 0.047021382 -0.063845396
0.054060508 0.046236202 -0.062964052
-0.056000005 0.049140148 -0.062405139
-0.054177005 0.048751276 -0.063609332
-0.052898653 0.048908465 -0.063999966
-0.050083533 0.047139082 -0.063999966
-0.048920486 0.048990719 -0.064000003
-0.047100998 0.048965208 -0.063999966
-0.044082049 0.047478057 -0.063999951
-0.043026697 0.049007118 -0.063999966
-0.041012656 0.049106129 -0.063999958
-0.038956013 0.049223084 -0.063999966
-0.037090961 0.049002822 -0.063999966
-0.034847338 0.049004726 -0.063999966
-0.032981385 0.048973389 -0.063999966
-0.031036206 0.04909043 -0.063999981
-0.028931245 0.048933364 -0.063999958
-0.026835268 0.048947006 -0.063999966
-0.025040125 0.048976697 -0.063999958
-0.02291923 0.0487893 -0.063999981
-0.020977143 0.048982907 -0.063999973
-0.019087248 0.049045421 -0.063999951
-0.016846398 0.04901341 -0.063999973
-0.014789849 0.049076024 -0.063999973
-0.013648602 0.048588373 -0.063999996
-0.010986931 0.049028922 -0.063999958
-0.0090158712 0.048880138 -0.063999973
-0.0071780384 0.048948623 -0.063999966
-0.0048574428 0.049080681 -0.063999988
-0.0030771275 0.049065754 -0.063999973
-0.0010669037 0.049126059 -0.063999966
0.0010306919 0.049151681 -0.063999951
0.0029894705 0.048887182 -0.063999958
0.0049111256 0.048946742 -0.063999988
0.0070070741 0.046321567 -0.063999966
0.0088444715 0.048952542 -0.063999973
0.011120312 0.048982352 -0.063999988
0.01297816 0.047079194 -0.063999981
0.015016004 0.048987903 -0.063999951
0.017085876 0.049082879 -0.063999951
0.018795811 0.047188316 -0.063999966
0.020979412 0.048992265 -0.063999973
0.022160519 0.04838609 -0.063999958
0.025029091 0.048910558 -0.063999958
0.026935492 0.049082838 -0.063999996
0.029085116 0.048633128 -0.063999966
0.031087868 0.048939403 -0.063999966
0.033032231 0.049099624 -0.063999988
0.033364724 0.04799746 -0.063999973
0.036953513 0.049120665 -0.063999973
0.039001696 0.049042739 -0.063999958
0.041000061 0.049043827 -0.063999966
0.042954233 0.048982333 -0.063999973
0.045176819 0.048926156 -0.063999958
0.047239814 0.049070206 -0.063999973
0.049043961 0.049001932 -0.063999951
0.050964735 0.049027547 -0.063999943
0.052974097 0.048950065 -0.063999951
0.053977907 0.04824103 -0.063844882
0.055999998 0.048997082 -0.063049063
-0.056000005 0.050834399 -0.063186951
-0.055252463 0.050773889 -0.063464165
-0.050954159 0.050488237 -0.063999966
-0.050871212 0.051177908 -0.063999973
-0.048939828 0.051056631 -0.063999981
-0.047087368 0.051073212 -0.063999981
-0.044786111 0.050925396 -0.063999958
-0.041870948 0.050949492 -0.063999966
-0.041067805 0.04948255 -0.063999958
-0.039035909 0.050985541 -0.063999966
-0.036978211 0.050854675 -0.063999966
-0.035061348 0.050812591 -0.063999973
-0.032985292 0.050957415 -0.063999973
-0.030963674 0.050857909 -0.063999973
-0.029011082 0.050916031 -0.063999966
-0.027014416 0.050943028 -0.063999966
-0.024941821 0.051072724 -0.063999966
-0.02311041 0.050978042 -0.063999981
-0.021013347 0.050907917 -0.063999966
-0.018508887 0.051029872 -0.063999973
-0.0170787 0.051047575 -0.063999973
-0.015003825 0.051007684 -0.063999966
-0.01290374 0.050826333 -0.063999958
-0.011002533 0.051070973 -0.063999981
-0.0090524657 0.05085073 -0.063999958
-0.0069676624 0.051091589 -0.063999966
-0.0049240668 0.050926946 -0.063999951
-0.0019467175 0.048549775 -0.063999981
-0.0010444976 0.051082555 -0.063999973
0.0010606436 0.050982866 -0.063999981
0.003585886 0.050351184 -0.063999966
0.004992377 0.05094571 -0.063999973
0.007109337 0.050894089 -0.063999951
0.0085598715 0.050811633 -0.063999973
0.011132145 0.051128123 -0.063999951
0.012984193 0.050969798 -0.063999973
0.015043791 0.051038198 -0.063999951
0.017539538 0.049663059 -0.063999958
0.019087356 0.050887801 -0.063999966
0.021101182 0.051103506 -0.063999988
0.023036098 0.051097304 -0.063999973
0.024998238 0.051170979 -0.063999958
0.027033413 0.050960265 -0.063999943
0.02810804 0.049598914 -0.063999973
0.031064315 0.050906632 -0.063999951
0.033063859 0.05098993 -0.063999966
0.034859613 0.050784022 -0.063999973
0.037028119 0.050948914 -0.063999943
0.039053593 0.051063724 -0.063999973
0.041148718 0.050964732 -0.063999951
0.043130379 0.051119518 -0.063999996
0.044939756 0.050917871 -0.063999973
0.047067489 0.051069334 -0.063999996
0.048958365 0.050914533 -0.063999973
0.050986681 0.050991502 -0.063999951
0.052979629 0.051062882 -0.063999988
0.054081488 0.04828012 -0.063883565
0.054989375 0.050544616 -0.062948734
-0.056000005 0.053416248 -0.062962316
-0.054957241 0.052906357 -0.063473918
-0.052970499 0.053049896 -0.063999973
-0.048868418 0.052647885 -0.063999653
-0.049036954 0.05313072 -0.063999966
-0.045557562 0.052718345 -0.063999981
-0.044958256 0.053014159 -0.063999966
-0.043068215 0.053011749 -0.063999966
-0.040272117 0.051569991 -0.063999951
-0.039063029 0.05306657 -0.063999951
-0.03716097 0.053035885 -0.063999981
-0.035069957 0.053013016 -0.063999973
-0.033021618 0.053050004 -0.063999988
-0.030945875 0.053016063 -0.063999973
-0.029036518 0.052994832 -0.063999996
-0.02684366 0.052921161 -0.063999973
-0.024546102 0.052534759 -0.063999951
-0.021580061 0.052456934 -0.063979991
-0.019554639 0.052088551 -0.063999973
-0.019161714 0.053067643 -0.063999981
-0.016889421 0.052929666 -0.063999981
-0.0162978 0.050452489 -0.063999966
-0.012999798 0.053055331 -0.063999973
-0.010767305 0.052968904 -0.063999973
-0.0089065423 0.052991889 -0.063999958
-0.0070491638 0.052915316 -0.063999966
-0.0048930137 0.052948058 -0.063999981
-0.003006665 0.053013239 -0.063999973
-0.00096410431 0.052977271 -0.064000003
0.001007075 0.052972544 -0.063999973
0.0016848416 0.049958576 -0.063999973
0.0048903027 0.05290978 -0.063999973
0.0072414707 0.053081386 -0.063999966
0.0090289395 0.052909039 -0.063999966
0.010858136 0.051003311 -0.063999981
0.012958169 0.05239284 -0.063999966
0.01492394 0.052947298 -0.063999958
0.016903738 0.052989025 -0.063999966
0.01918466 0.053025287 -0.063999958
0.020903727 0.053110942 -0.063999996
0.023001902 0.052896809 -0.063999966
0.024994656 0.053081233 -0.063999973
0.026926851 0.052955415 -0.063999988
0.028489331 0.051424734 -0.063999951
0.030943023 0.052855145 -0.063999981
0.032958586 0.052969888 -0.063999958
0.033836178 0.05215326 -0.063999973
0.036976501 0.052889165 -0.063999951
0.038942438 0.052965607 -0.063999966
0.041177504 0.052921664 -0.063999973
0.042631842 0.052769903 -0.063999966
0.044720482 0.053026263 -0.063999981
0.046937041 0.052927364 -0.063999973
0.04857032 0.051252887 -0.063999958
0.050972003 0.053115036 -0.063999951
0.053045765 0.053201634 -0.063999973
0.055025626 0.053007353 -0.063932203
0.055999998 0.053260468 -0.063037761
-0.056000005 0.054477066 -0.063010663
-0.054250114 0.053510692 -0.063232988
-0.052233282 0.053157635 -0.063235074
-0.051175546 0.053912353 -0.063311823
-0.048991576 0.054873846 -0.06315919
-0.047020953 0.054833136 -0.063386217
-0.044990309 0.054830942 -0.063484736
-0.043034852 0.054840706 -0.063338473
-0.041031003 0.054833766 -0.063328318
-0.038173601 0.05397626 -0.063284889
-0.035903368 0.054701526 -0.063365735
-0.035150561 0.054850411 -0.063151345
-0.033080593 0.054860931 -0.063192047
-0.030302824 0.05442398 -0.063155442
-0.029300284 0.054538812 -0.063301004
-0.027068233 0.05467014 -0.063357443
-0.024984693 0.054803781 -0.06343893
-0.022390826 0.054458473 -0.063458599
-0.021058723 0.054857641 -0.063279837
-0.01899351 0.054845806 -0.063386537
-0.016988957 0.054844279 -0.063357808
-0.014927183 0.05485912 -0.063342199
-0.012918825 0.054835487 -0.063309871
-0.011151291 0.054816209 -0.063351713
-0.00905116 0.054862887 -0.06318748
-0.0062422147 0.05408467 -0.063323066
-0.0050018774 0.054862369 -0.063180573
-0.0029783729 0.054839063 -0.06329421
-0.00089379807 0.054824647 -0.06330733
0.0010177159 0.054838318 -0.063289553
0.0030950198 0.054835234 -0.063382745
0.004929814 0.05487315 -0.063331261
0.0069323028 0.054820828 -0.06329488
0.0091219423 0.054863051 -0.063164935
0.010992928 0.054837238 -0.063390754
0.012867743 0.054856136 -0.063291207
0.014968473 0.054874964 -0.063280672
0.017034255 0.054866463 -0.063248269
0.018102963 0.054545131 -0.063357845
0.020956378 0.054814577 -0.063217156
0.022958832 0.054793015 -0.063436471
0.025398666 0.053942051 -0.063265406
0.026564142 0.053859215 -0.063274652
0.028914101 0.054814786 -0.063368231
0.030979518 0.05477991 -0.063432522
0.032573476 0.054547947 -0.06337817
0.035032645 0.054793861 -0.063437805
0.037128292 0.054835103 -0.063240767
0.038987506 0.054883979 -0.06332738
0.041032538 0.054785598 -0.06329681
0.042992789 0.054824527 -0.063310824
0.045030396 0.05480098 -0.063356668
0.047038961 0.054869819 -0.063317426
0.049013644 0.054873776 -0.063324682
0.051001739 0.054821685 -0.063452743
0.052993882 0.05484885 -0.063242003
0.054962188 0.054811556 -0.063430563
0.055999998 0.054549608 -0.062814742
-0.056000005 -0.054458011 -0.060836937
-0.055288676 -0.054854825 -0.060863443
-0.052991994 -0.054999996 -0.060941707
-0.050895628 -0.055 -0.061082017
-0.048894115 -0.054999992 -0.061156139
-0.047047365 -0.054999985 -0.061157096
-0.0450253 -0.055000011 -0.060899884
-0.04310381 -0.055000003 -0.061004814
-0.03956699 -0.054530561 -0.060879726
-0.037622441 -0.052390575 -0.061202183
-0.03713274 -0.055000003 -0.060958404
-0.035093732 -0.054999989 -0.060965918
-0.032901403 -0.054999989 -0.061184704
-0.030966159 -0.055000007 -0.061011337
-0.029091261 -0.055 -0.060929574
-0.026987769 -0.054999992 -0.060959917
-0.024928479 -0.054999989 -0.060962632
-0.023021137 -0.054999981 -0.061162803
-0.021722676 -0.053080801 -0.061026916
-0.01896826 -0.054999996 -0.061007772
-0.017363671 -0.053184189 -0.061254088
-0.014926972 -0.055000003 -0.060936302
-0.013147849 -0.054999992 -0.061095178
-0.010876816 -0.055 -0.061011776
-0.0090022115 -0.054999996 -0.060930192
-0.0069079176 -0.055000003 -0.060938042
-0.0044815629 -0.050832454 -0.061157633
-0.0028933894 -0.054999981 -0.060859945
-0.0010549767 -0.054999985 -0.060949549
0.0010147999 -0.054999992 -0.061212871
0.0029986911 -0.055 -0.061175391
0.0050230417 -0.055000003 -0.061004452
0.006968806 -0.054999977 -0.061118856
0.0090287374 -0.055000003 -0.06102559
0.010977764 -0.054999992 -0.060995363
0.012544158 -0.053126439 -0.06113359
0.015094323 -0.054999992 -0.061086677
0.017006483 -0.055000003 -0.061154764
0.019074745 -0.055000011 -0.061027925
0.021099744 -0.054999992 -0.061094031
0.022920405 -0.055 -0.061055012
0.025032552 -0.054999981 -0.060952958
0.024813075 -0.052346945 -0.061144724
0.029029395 -0.055 -0.061051626
0.031024359 -0.054999992 -0.061090954
0.032812525 -0.054999996 -0.06089231
0.035358142 -0.0538975 -0.06112738
0.0370268 -0.055000018 -0.060875151
0.039099719 -0.055 -0.060933184
0.040951915 -0.054999992 -0.060901936
0.043025136 -0.054999996 -0.060980253
0.044869635 -0.054999977 -0.060913403
0.047032356 -0.054999996 -0.060903233
0.04897185 -0.054999992 -0.061065067
0.050871298 -0.055 -0.061046138
0.052938867 -0.054999996 -0.060907878
0.054923397 -0.054999985 -0.061030205
0.056000002 -0.054460865 -0.060959831
-0.056000002 -0.053104609 -0.060749557
-0.056000002 -0.053111006 -0.061123423
0.055999998 -0.05291545 -0.061044492
-0.055999998 -0.050896954 -0.060997825
0.055999998 -0.051104944 -0.060958751
-0.055628348 -0.047067739 -0.061112475
0.056000002 -0.049016211 -0.061025515
-0.054219719 -0.045010619 -0.061189901
0.055868965 -0.04628377 -0.061087903
-0.05583515 -0.044124503 -0.061112639
0.05423981 -0.04507016 -0.06106773
-0.055999998 -0.042974446 -0.060982361
0.055999998 -0.043187253 -0.060948472
-0.056000002 -0.040967859 -0.061119448
0.05389649 -0.039881729 -0.061124969
-0.056000002 -0.039061133 -0.060988475
0.056000002 -0.038993314 -0.060948931
-0.056000002 -0.036918353 -0.061012313
0.056000002 -0.037062798 -0.061100274
-0.055999998 -0.034886137 -0.06092643
0.056000002 -0.035021316 -0.060917977
-0.055863503 -0.031747218 -0.061129197
0.05441051 -0.032783166 -0.061086521
-0.055999998 -0.031013681 -0.061029069
0.055999998 -0.030966664 -0.060820546
-0.056000002 -0.029020648 -0.060961504
0.056000002 -0.028820783 -0.061104484
-0.056000002 -0.027048467 -0.060968973
0.056000002 -0.02712016 -0.061026502
-0.055999998 -0.025010202 -0.060940009
0.056000002 -0.02494753 -0.060873192
-0.055999998 -0.023115573 -0.060956333
0.055999998 -0.022993697 -0.061055973
-0.056000002 -0.02087909 -0.06100272
0.056000002 -0.021144236 -0.060935814
-0.056000002 -0.018907586 -0.061011277
0.055999998 -0.018947797 -0.060867928
-0.055999998 -0.017046269 -0.060957294
0.055999998 -0.017054833 -0.061070032
-0.055999998 -0.01501462 -0.060833786
0.055999998 -0.015140752 -0.061015457
-0.055999998 -0.013042044 -0.060996279
0.055999998 -0.013009431 -0.060897622
-0.056000002 -0.010860147 -0.061038863
0.056000002 -0.011085297 -0.061056815
-0.056000002 -0.0090264818 -0.060975648
0.055999998 -0.0090303598 -0.0610268
-0.055999998 -0.0069395183 -0.061010934
0.055999998 -0.007205172 -0.061025184
-0.056000002 -0.0050043687 -0.060991552
0.055999998 -0.0050294776 -0.061004508
-0.056000002 -0.0030037516 -0.060976211
0.056000002 -0.0029253361 -0.060951378
-0.054665498 -0.00061288889 -0.061070684
0.056000002 -0.00094344292 -0.060903046
-0.055999998 0.0011669652 -0.060983345
0.054385819 4.5454322e-05 -0.06101454
-0.055999994 0.0029822779 -0.060943387
0.055999998 0.0030028168 -0.06099784
-0.055999998 0.0050339489 -0.061072167
0.056000002 0.0049935728 -0.061049953
-0.055999998 0.0070022899 -0.06106443
0.055999998 0.0072706481 -0.060565852
0.056000002 0.0068930355 -0.061049506
-0.056000005 0.008695228 -0.060866691
-0.056000002 0.0088357376 -0.060984835
0.055999998 0.0099738855 -0.060392648
0.056000002 0.0089940717 -0.061062288
-0.056000005 0.0109652 -0.061004769
-0.053438481 0.011288174 -0.060989872
0.056000002 0.011541389 -0.060986638
0.055999998 0.011020956 -0.060945805
-0.056000005 0.013009824 -0.061266016
-0.056000002 0.013017464 -0.060911648
0.055999998 0.013666996 -0.06093948
0.054954346 0.012320421 -0.061217189
-0.056000005 0.015499448 -0.061525952
-0.056000002 0.01495914 -0.061074503
0.055999998 0.015009318 -0.06084004
0.054711379 0.013751236 -0.060996905
-0.052921962 0.016938031 -0.061120145
0.056000002 0.017105429 -0.061016049
0.055999998 0.016918933 -0.061099611
-0.056000005 0.01858422 -0.06058874
-0.054444496 0.019344896 -0.060990576
0.056000002 0.018584838 -0.061090406
0.055999998 0.019067181 -0.060955722
-0.054195862 0.019992197 -0.061100576
0.056000002 0.021067692 -0.060544364
0.055999998 0.020906989 -0.060983215
-0.056000005 0.02294348 -0.061278887
-0.055999998 0.022898206 -0.061006136
0.055999998 0.02271539 -0.061035201
0.056000002 0.023019077 -0.060981069
-0.056000005 0.02532528 -0.061041318
-0.055999998 0.02497915 -0.061043192
0.056000002 0.025234552 -0.060828835
0.056000002 0.024973622 -0.06104926
-0.056000005 0.026690025 -0.06124812
-0.05518125 0.02647927 -0.060939476
0.055999998 0.027380291 -0.060095571
0.055999998 0.027026178 -0.061000843
-0.056000005 0.029386563 -0.060879853
-0.055999998 0.028926082 -0.061104551
0.056000002 0.028891958 -0.060885124
0.055999998 0.028916832 -0.061133444
-0.056000005 0.031062951 -0.061224312
-0.056000002 0.031120254 -0.061095577
0.055999998 0.030543773 -0.060995799
0.054178461 0.030291339 -0.060976446
-0.056000005 0.032822765 -0.060803518
-0.055999998 0.033164334 -0.061065886
0.056000002 0.033045288 -0.060974926
0.056000002 0.033075385 -0.060978658
-0.056000005 0.034878988 -0.060970329
-0.056000002 0.034961898 -0.060985222
0.056000002 0.034736112 -0.060864858
0.056000002 0.035012722 -0.061009388
-0.056000005 0.036337771 -0.060904864
-0.055999998 0.037192859 -0.060953822
0.056000002 0.037111856 -0.060859628
0.054236759 0.035950836 -0.061063893
-0.056000005 0.038315915 -0.061265491
-0.056000002 0.038963307 -0.060989145
0.055999998 0.038996227 -0.060558602
0.056000002 0.03884441 -0.061170995
-0.056000005 0.041107297 -0.061321627
-0.056000002 0.041152716 -0.06100788
0.056000002 0.040786456 -0.060808327
0.055999998 0.041064966 -0.060969993
-0.056000005 0.043033343 -0.060702614
-0.055999998 0.042936899 -0.061008021
0.056000002 0.043341409 -0.060772952
0.056000002 0.043082405 -0.061019879
-0.056000005 0.044246271 -0.061690494
-0.053755634 0.042829011 -0.061142389
0.055999998 0.04554829 -0.061046869
0.055999998 0.044915501 -0.060902569
-0.056000005 0.047537617 -0.060866721
-0.055999998 0.047101844 -0.060993418
0.055999998 0.046944074 -0.060850494
0.056000002 0.047010947 -0.061045583
-0.056000005 0.048838366 -0.061171133
-0.055999998 0.048964471 -0.060999092
0.055999998 0.049263928 -0.061514594
0.054855119 0.048960008 -0.06100804
-0.056000005 0.051528987 -0.060868818
-0.056000002 0.051201858 -0.06096673
0.056000002 0.051305588 -0.061022531
0.053837072 0.049066395 -0.06107007
-0.056000005 0.0529585 -0.061152522
-0.056000002 0.05298622 -0.061033912
0.055999998 0.053313874 -0.060656711
0.055999998 0.052887246 -0.060905591
-0.056000005 0.054433607 -0.061079264
-0.055436596 0.054819349 -0.061019529
-0.050937455 0.053351935 -0.060990069
-0.051045466 0.055000011 -0.061105069
-0.049122874 0.054999989 -0.060975939
-0.046875428 0.054999989 -0.061010659
-0.044997964 0.054999977 -0.060858749
-0.043005619 0.055000018 -0.060962856
-0.041086413 0.055000003 -0.06099562
-0.038984053 0.054999996 -0.061018411
-0.03704622 0.054999992 -0.060949609
-0.035015132 0.054999981 -0.060981955
-0.03285965 0.055 -0.060930446
-0.031142758 0.054999981 -0.060946252
-0.028981188 0.055 -0.060922217
-0.02699773 0.054999989 -0.060914412
-0.024942355 0.055000015 -0.061021492
-0.023124509 0.055000003 -0.060897574
-0.021055726 0.055000003 -0.060934704
-0.018951684 0.054999992 -0.060979947
-0.016915472 0.054999992 -0.060774423
-0.015108921 0.054999992 -0.061000627
-0.01291849 0.055000003 -0.061047219
-0.009835653 0.053335819 -0.060863025
-0.0091117322 0.055000007 -0.060909994
-0.0071460865 0.053772945 -0.061049309
-0.0050379583 0.055000015 -0.061004642
-0.0029562949 0.054999992 -0.061211411
-0.0010533732 0.054999996 -0.060918849
0.00075374346 0.054999985 -0.06104989
0.0030459326 0.054999992 -0.061119698
0.0050517162 0.054999996 -0.060993306
0.0070319809 0.055 -0.061000448
0.0088738808 0.055000007 -0.060998574
0.010987686 0.055000011 -0.06115995
0.01299201 0.054999992 -0.061000835
0.015003902 0.055000007 -0.060917821
0.016855448 0.054999989 -0.061109509
0.017767126 0.054714851 -0.061134174
0.020996528 0.054999992 -0.061056338
0.022871129 0.054999992 -0.060965169
0.02499306 0.054999992 -0.06111782
0.026890818 0.054999996 -0.060958408
0.029010307 0.054814566 -0.061070848
0.030420786 0.054968514 -0.0610939
0.032992654 0.055000007 -0.060938809
0.035010949 0.055000007 -0.061041884
0.036879331 0.055000003 -0.061024643
0.03907989 0.055000007 -0.060996328
0.040962387 0.055000007 -0.06099252
0.04293583 0.055000003 -0.060902417
0.045073021 0.054999981 -0.060915422
0.046885885 0.055000003 -0.061140347
0.048875131 0.054999996 -0.060964819
0.050826296 0.055 -0.060928009
0.053053606 0.054999996 -0.060972333
0.055194058 0.054957654 -0.060920365
0.056000002 0.054586098 -0.061040279
-0.056000005 -0.054956056 -0.058437232
-0.055232868 -0.054864947 -0.05903782
-0.052981678 -0.055000011 -0.058990195
-0.051050436 -0.054999981 -0.058958035
-0.048917048 -0.055000011 -0.058960088
-0.046872716 -0.055 -0.05889947
-0.043273736 -0.053464565 -0.058990199
-0.043088272 -0.055000011 -0.059075478
-0.039292865 -0.054432258 -0.059128921
-0.038963597 -0.054999996 -0.059067681
-0.036601715 -0.054377701 -0.05906295
-0.034880493 -0.054999985 -0.059074748
-0.032855995 -0.055000007 -0.058886588
-0.030969938 -0.055000003 -0.058889728
-0.028937221 -0.054980267 -0.059081849
-0.026226612 -0.053221382 -0.059252568
-0.025019217 -0.054999985 -0.058985215
-0.022992766 -0.054999992 -0.058986425
-0.02111382 -0.054999977 -0.059117582
-0.018974297 -0.054999981 -0.058800917
-0.016908487 -0.054999992 -0.058946297
-0.015016585 -0.055000003 -0.058955457
-0.01297141 -0.055000003 -0.059218381
-0.01086733 -0.055000003 -0.058967587
-0.0092556737 -0.052735321 -0.059047338
-0.0069132657 -0.055000011 -0.059043843
-0.0051098503 -0.054999992 -0.059015322
-0.0028897375 -0.055000007 -0.059081178
-0.00089254038 -0.054999989 -0.058978528
0.00088484539 -0.054999981 -0.059051551
0.0029727404 -0.054999989 -0.059066974
0.0045564827 -0.054035436 -0.059081569
0.0069621606 -0.055000011 -0.058854945
0.008322347 -0.05399726 -0.059113227
0.010992817 -0.055000015 -0.059128173
0.013025718 -0.054999992 -0.058889132
0.015130305 -0.055000007 -0.05920139
0.017116819 -0.055000007 -0.059010636
0.019028755 -0.055000003 -0.059039257
0.020989742 -0.055000003 -0.059056751
0.023066992 -0.055000007 -0.059078667
0.023410063 -0.054149266 -0.059166256
0.026114827 -0.053754568 -0.059079826
0.028765192 -0.054999977 -0.059146199
0.031080149 -0.055 -0.059071314
0.032999516 -0.054999992 -0.05897158
0.034947876 -0.055000007 -0.058978129
0.037097365 -0.055000007 -0.05898023
0.039022133 -0.054999981 -0.058918275
0.040686224 -0.05285554 -0.059055544
0.043124471 -0.054999996 -0.058947906
0.045113973 -0.054999992 -0.058933105
0.046922665 -0.055000003 -0.059048522
0.046944242 -0.052991826 -0.058881525
0.051036835 -0.054999992 -0.059066884
0.053064968 -0.055 -0.058938395
0.05500387 -0.055000003 -0.058910038
0.056000002 -0.054494318 -0.058780961
-0.056000002 -0.052978635 -0.058877259
-0.056000002 -0.053071816 -0.058810312
0.055999998 -0.053004161 -0.059023526
-0.056000005 -0.051299982 -0.059009083
-0.055999998 -0.050970078 -0.059031472
0.056000002 -0.050994299 -0.058940887
-0.055999998 -0.048986048 -0.058944214
0.056000002 -0.04896934 -0.059043605
-0.056000002 -0.046952508 -0.058878765
0.056000002 -0.047061771 -0.058997724
-0.055999998 -0.04506892 -0.058938406
0.056000002 -0.044901621 -0.05895577
-0.056000002 -0.043039847 -0.059029404
0.056000002 -0.04302793 -0.05897747
-0.055999998 -0.041007027 -0.059026346
0.056000002 -0.04089348 -0.05898628
-0.055701472 -0.037197284 -0.059131559
0.056000002 -0.03899195 -0.059084494
-0.055999998 -0.036926854 -0.058964856
0.056000002 -0.037041087 -0.059056655
-0.055999998 -0.034999471 -0.058990721
0.055999998 -0.034973055 -0.05896705
-0.05582488 -0.033129729 -0.058968052
0.056000002 -0.033055633 -0.059112635
-0.056000002 -0.031017873 -0.058925416
0.055999998 -0.030905692 -0.059006389
-0.054795761 -0.029453767 -0.058922235
0.05461565 -0.028932797 -0.05909159
-0.054939806 -0.026992105 -0.059206091
0.055999998 -0.026950307 -0.058947064
-0.054443885 -0.024541331 -0.05913806
0.056000002 -0.02497698 -0.058997996
-0.056000002 -0.023068335 -0.059115432
0.056000002 -0.02310182 -0.059042528
-0.055999998 -0.020946342 -0.059036333
0.055999998 -0.021070287 -0.058999557
-0.055999998 -0.018899199 -0.058950461
0.055999998 -0.01918013 -0.058978595
-0.053661689 -0.016222123 -0.059092797
0.054728646 -0.015877355 -0.05904993
-0.056000002 -0.014943025 -0.059114005
0.055375386 -0.013450068 -0.059147663
-0.054183889 -0.01272741 -0.059184019
0.055313844 -0.013746456 -0.059079792
-0.055999998 -0.010970077 -0.058793228
0.056000002 -0.011075941 -0.059127383
-0.056000002 -0.0090402057 -0.058912802
0.055999998 -0.0089367861 -0.058856118
-0.055635922 -0.006282947 -0.058942053
0.053886577 -0.0063270247 -0.059175227
-0.053973339 -0.0053309728 -0.059102718
0.055999998 -0.0050317543 -0.058916181
-0.05445664 -0.003685052 -0.058990758
0.056000002 -0.0030592198 -0.059034824
-0.055999998 -0.0011402712 -0.059016582
0.055999998 -0.00091035699 -0.059002899
-0.056000002 0.0008171256 -0.059039749
0.055999998 0.0010360172 -0.059004489
-0.055386014 0.0040113465 -0.059063915
0.056000002 0.0029667958 -0.058946028
-0.055999998 0.0050911014 -0.059112038
0.054151241 0.0052840202 -0.059119519
-0.056000002 0.0069695017 -0.058903307
0.055999998 0.006967023 -0.05869966
0.055999998 0.0078333374 -0.059208326
-0.056000005 0.0090394001 -0.059149191
-0.055999998 0.0088993814 -0.05894696
0.055999998 0.0095695183 -0.059186719
0.053285938 0.0092213703 -0.059233163
-0.055999998 0.010842459 -0.059124853
0.056000002 0.010926804 -0.058511984
0.056000002 0.010995995 -0.059178252
-0.056000005 0.013242684 -0.059124351
-0.056000002 0.01305816 -0.059024666
0.056000002 0.013024274 -0.058862146
-0.056000005 0.014962729 -0.059572101
-0.055999998 0.014920032 -0.05923713
0.056000002 0.015292446 -0.059083711
0.056000002 0.015059238 -0.059058409
-0.056000005 0.016391667 -0.059262238
-0.056000002 0.017029746 -0.059090313
0.055760562 0.017538346 -0.059105903
-0.056000005 0.018977633 -0.05942294
-0.055999998 0.019052114 -0.059044365
0.055999998 0.018475162 -0.058687966
0.055999998 0.019103274 -0.058995824
-0.056000005 0.021387093 -0.058472872
-0.056000002 0.021003636 -0.059061836
0.056000002 0.021084039 -0.058735132
0.055999998 0.020768043 -0.058919478
-0.056000005 0.02308213 -0.058866348
-0.055999998 0.022929264 -0.058959428
0.055999998 0.022893522 -0.059346341
0.055999998 0.022995621 -0.058978118
-0.056000005 0.025783716 -0.058181286
-0.055074461 0.023634601 -0.059156444
0.056000002 0.024729669 -0.059243724
0.055999998 0.025009122 -0.059063748
-0.056000005 0.027205618 -0.059290417
-0.055999998 0.027000677 -0.058919452
0.056000002 0.026913021 -0.058337849
0.056000002 0.026910793 -0.059122544
-0.056000005 0.02833288 -0.058686677
-0.055999998 0.028925978 -0.059005279
0.055999998 0.028837461 -0.05898698
-0.056000005 0.031326815 -0.058895238
-0.055999998 0.031094823 -0.058955077
0.056000002 0.030923586 -0.059221845
0.056000002 0.030826295 -0.058930602
-0.056000005 0.033445682 -0.058894131
-0.056000002 0.033082422 -0.05909621
0.055999998 0.032575786 -0.059093453
0.054977402 0.03207054 -0.05913876
-0.056000005 0.034659635 -0.059200916
-0.055113047 0.033925276 -0.059053455
0.056000002 0.034989968 -0.058997821
0.056000002 0.03495767 -0.059175119
-0.055999998 0.036951128 -0.05897703
0.056000002 0.036695033 -0.058900084
0.056000002 0.036968507 -0.059011836
-0.056000005 0.038732722 -0.059010636
-0.055999998 0.039016165 -0.05903041
0.055999998 0.039575055 -0.058726393
0.055999998 0.039087955 -0.058917232
-0.056000005 0.040947821 -0.058829807
-0.056000002 0.040910248 -0.058887899
0.056000002 0.040776581 -0.059655018
0.056000002 0.040861353 -0.058909722
-0.056000005 0.042442746 -0.059059098
-0.055999998 0.042889226 -0.059007082
0.055999998 0.043102589 -0.058977839
-0.056000005 0.045112379 -0.05907701
-0.05574578 0.045200493 -0.05898311
0.055999998 0.044841982 -0.058516219
0.055047177 0.044960622 -0.058998372
-0.056000005 0.046782505 -0.058981258
-0.056000002 0.04701902 -0.059085011
0.055999998 0.047109157 -0.058793887
0.053896569 0.045209628 -0.058992628
-0.056000005 0.048704214 -0.059059486
-0.055999998 0.049175236 -0.059018254
0.055999998 0.049292274 -0.058815517
0.055999998 0.049020942 -0.059040185
-0.056000005 0.050966155 -0.058792081
-0.055999998 0.05092182 -0.059033129
0.056000002 0.051253349 -0.059367504
0.054463353 0.048543498 -0.059008639
-0.056000005 0.052752785 -0.058680262
-0.056000002 0.052806422 -0.058833294
0.056000002 0.053044498 -0.059022795
0.056000002 0.053009089 -0.058997862
-0.054213602 0.053882308 -0.059081733
-0.051093053 0.05416381 -0.059161432
-0.047477212 0.049609356 -0.059284527
-0.048948314 0.055000015 -0.05897522
-0.047052413 0.055000003 -0.059207235
-0.044908985 0.05372642 -0.059015825
-0.042922519 0.055 -0.059129082
-0.040972773 0.055000003 -0.058878388
-0.037867196 0.05309039 -0.05907879
-0.036907069 0.055 -0.059072047
-0.035005115 0.054999989 -0.058980115
-0.032665219 0.054268137 -0.05905807
-0.030980479 0.055000015 -0.058878224
-0.028767437 0.054320663 -0.059042264
-0.026385536 0.05294273 -0.059003111
-0.025154524 0.054999992 -0.059198108
-0.022890106 0.054999992 -0.058979843
-0.020916179 0.054999996 -0.058938093
-0.019036423 0.055 -0.059004571
-0.016588826 0.053763814 -0.059131332
-0.014788563 0.053913224 -0.059173938
-0.012879201 0.054999992 -0.059091177
-0.0082626585 0.049245421 -0.059240025
-0.0089468425 0.055000015 -0.059089702
-0.0067398613 0.05430723 -0.059136558
-0.0050553852 0.055000011 -0.058966212
-0.0030318373 0.054999992 -0.058894485
-0.0019072341 0.05413118 -0.05903399
0.0011502994 0.055 -0.059003819
0.0030329253 0.053139031 -0.059140813
0.0052470244 0.054999996 -0.05899702
0.0069229626 0.055000003 -0.058904819
0.0090101976 0.054999992 -0.058976766
0.010557704 0.053041466 -0.05922588
0.012533894 0.054761805 -0.05910556
0.014994062 0.055 -0.059006922
0.016924543 0.054999996 -0.059095897
0.019770907 0.054684136 -0.058905751
0.020948598 0.054999981 -0.059033487
0.022870732 0.055000003 -0.058939416
0.025113039 0.054999989 -0.059069987
0.027035212 0.054999989 -0.058829229
0.028968174 0.055000003 -0.058983371
0.031046418 0.055000007 -0.05885588
0.033010192 0.055000007 -0.059109904
0.035112843 0.054999996 -0.059029311
0.037034355 0.054999985 -0.059128746
0.038958982 0.054999996 -0.058950301
0.040175099 0.053107414 -0.059180241
0.04303563 0.055000015 -0.059047401
0.044901457 0.055 -0.059127457
0.046997014 0.055000015 -0.058987964
0.046618607 0.053538971 -0.059197634
0.049590964 0.053914126 -0.059087735
0.052905757 0.054999985 -0.059100248
0.055039141 0.054993182 -0.059147581
0.055999998 0.054469883 -0.058941476
-0.056000005 -0.054358654 -0.057014201
-0.055459689 -0.05481904 -0.056943838
-0.052945621 -0.054999992 -0.056984924
-0.051090293 -0.054999996 -0.056990568
-0.048966665 -0.054999996 -0.056992572
-0.047046784 -0.054999989 -0.056971069
-0.045003511 -0.054999996 -0.057017054
-0.040869307 -0.054600425 -0.057034787
-0.040827859 -0.055000003 -0.056910377
-0.038922533 -0.054999992 -0.057035517
-0.036994033 -0.054999981 -0.056768905
-0.034964047 -0.054999981 -0.057014808
-0.030904841 -0.053775609 -0.05711529
-0.031038988 -0.055 -0.057039391
-0.028319949 -0.052500423 -0.057322662
-0.026999474 -0.054999996 -0.057115044
-0.024349969 -0.05317425 -0.05710103
-0.022713194 -0.05469184 -0.057047956
-0.021107666 -0.055000003 -0.056906428
-0.018191207 -0.054643463 -0.057167072
-0.015978402 -0.052835982 -0.05718796
-0.015021895 -0.054999992 -0.056987863
-0.013036338 -0.055000007 -0.057053756
-0.011017215 -0.055 -0.057068806
-0.0091445837 -0.054999996 -0.056931004
-0.0065847361 -0.053944301 -0.057304394
-0.0051684962 -0.055000003 -0.057052072
-0.0029825093 -0.054999989 -0.056861155
-0.00096317893 -0.054999985 -0.057113655
0.00099403341 -0.054999981 -0.057113953
0.003055393 -0.055000003 -0.057037927
0.0049944101 -0.054999981 -0.057015881
0.0069128382 -0.055000003 -0.056989226
0.0090004047 -0.054999996 -0.057051532
0.010852262 -0.05485845 -0.057403453
0.013121312 -0.055000007 -0.057032112
0.014902823 -0.054999992 -0.056994569
0.017013906 -0.054999996 -0.056949388
0.018231699 -0.053676803 -0.057226799
0.020675221 -0.054638717 -0.057072677
0.023018107 -0.054999996 -0.056994744
0.024967907 -0.055 -0.056854479
0.027096365 -0.054999992 -0.057165351
0.027479779 -0.05108808 -0.05728855
0.030913901 -0.054999996 -0.056990646
0.031956296 -0.053289175 -0.057147417
0.035032615 -0.054999989 -0.05703374
0.037022363 -0.054999985 -0.057014119
0.038830139 -0.054999989 -0.057077263
0.041085485 -0.055 -0.056854729
0.04300246 -0.054999992 -0.057114929
0.043894276 -0.053913083 -0.05715939
0.047004662 -0.055 -0.056933209
0.048989981 -0.054999996 -0.05695647
0.050638121 -0.052618515 -0.057094328
0.052991848 -0.055 -0.056909308
0.054666787 -0.054938413 -0.057149667
0.056000002 -0.054518737 -0.056832399
-0.056000005 -0.053384531 -0.057135668
-0.0553292 -0.050628256 -0.057200454
0.055999998 -0.05308491 -0.05700646
-0.056000005 -0.050806966 -0.057219744
-0.055999998 -0.051026531 -0.05700656
0.056000002 -0.051035542 -0.056986142
-0.056000005 -0.04924345 -0.056413256
-0.055999998 -0.049146514 -0.057080328
0.056000002 -0.048996814 -0.056936439
-0.055100329 -0.045964267 -0.057225689
0.056000002 -0.046963122 -0.05697991
-0.056000002 -0.045129191 -0.056870971
0.056000002 -0.045088261 -0.056845844
-0.055432878 -0.041665908 -0.057152599
0.054294933 -0.041282952 -0.057096533
-0.055999998 -0.041039698 -0.05703482
0.056000002 -0.040963497 -0.057132889
-0.055354171 -0.038672384 -0.057187926
0.05402042 -0.037657768 -0.057179399
-0.056000002 -0.036997795 -0.057034887
0.056000002 -0.036887322 -0.057071589
-0.055999998 -0.034967352 -0.05701071
0.054846168 -0.033763219 -0.057175282
-0.056000002 -0.032915402 -0.056928638
0.055999998 -0.033088051 -0.057008978
-0.055999998 -0.030966181 -0.056969609
0.054290567 -0.030461444 -0.057116598
-0.055999998 -0.02902195 -0.057032406
0.055999998 -0.028894991 -0.057137042
-0.056000002 -0.026877742 -0.056944408
0.056000002 -0.02715263 -0.056846682
-0.056000002 -0.024877597 -0.05697057
0.055999998 -0.024919335 -0.056942236
-0.056000002 -0.023010625 -0.0568811
0.054234598 -0.021990009 -0.057267573
-0.056000002 -0.020909967 -0.057055235
0.055999998 -0.020920131 -0.057025854
-0.055999998 -0.019041356 -0.056843109
0.056000002 -0.019075606 -0.057112657
-0.055999998 -0.016880354 -0.057090342
0.056000002 -0.016932223 -0.057154179
-0.05545073 -0.014564004 -0.057151373
0.054673925 -0.015675981 -0.057202216
-0.055999998 -0.013210749 -0.057107437
0.056000002 -0.012888707 -0.05704255
-0.056000002 -0.011048968 -0.057004441
0.055999998 -0.010950885 -0.057016071
-0.056000002 -0.0090844342 -0.056897577
0.056000002 -0.0091696456 -0.057090715
-0.055860385 -0.006893333 -0.057298783
0.055999998 -0.0070372364 -0.056944378
-0.056000002 -0.0049016373 -0.057145018
0.055815451 -0.0047766436 -0.057312667
-0.056000002 -0.0030751345 -0.05698413
0.056000002 -0.0029822364 -0.05687565
-0.056000002 -0.00099329033 -0.057006188
0.056000002 -0.0010686341 -0.05699598
-0.056000002 0.00088717288 -0.056952529
0.056000002 0.00097058364 -0.057013899
-0.055999998 0.0030633654 -0.056921095
0.055999998 0.0029109207 -0.057103433
-0.055999998 0.0048747696 -0.056966443
0.055999998 0.005152679 -0.056997735
-0.055999994 0.0069402084 -0.057119332
0.055999998 0.0074645709 -0.056943551
0.055999998 0.007142487 -0.057073418
-0.056000005 0.0097675109 -0.056334801
-0.055999998 0.0089701861 -0.057065859
0.055999998 0.0081732962 -0.056277394
0.056000002 0.0089827757 -0.056950886
-0.056000005 0.010305042 -0.057860181
-0.055999998 0.011045382 -0.056920838
0.056000002 0.011420075 -0.057145707
0.056000002 0.011036309 -0.057111736
-0.056000005 0.012824463 -0.056468289
-0.056000002 0.013068964 -0.057166308
0.055999998 0.012947072 -0.05743295
0.053925924 0.012600282 -0.057106063
-0.056000005 0.01474415 -0.057071574
-0.056000002 0.015035605 -0.056940757
0.055999998 0.015701212 -0.056168325
0.055999998 0.015086465 -0.057017762
-0.056000005 0.016270256 -0.057289772
-0.056000002 0.017083814 -0.057056364
0.056000002 0.017484494 -0.057390671
0.055999998 0.016929964 -0.056905802
-0.056000005 0.01896601 -0.057333779
-0.056000002 0.018959539 -0.057003874
0.056000002 0.019044811 -0.056942809
0.055999998 0.018903604 -0.056982189
-0.056000005 0.021848336 -0.056991167
-0.055339847 0.020232381 -0.057316396
0.056000002 0.020720888 -0.057351977
0.055999998 0.020838922 -0.057000209
-0.056000005 0.023772592 -0.056950144
-0.053335052 0.023369821 -0.057169151
0.055999998 0.022415429 -0.056893274
0.056000002 0.02298017 -0.057063591
-0.025189098 -0.046930008 -0.063999966
-0.056000002 0.025152864 -0.056961536
0.055999998 0.024991322 -0.057148695
0.056000002 0.024987614 -0.057058029
-0.056000005 0.026993699 -0.056966849
-0.055999998 0.027015718 -0.05695042
0.055999998 0.027488772 -0.056529962
0.056000002 0.027044306 -0.05696572
-0.056000005 0.028721586 -0.056563415
-0.056000002 0.029031843 -0.057276111
0.055999998 0.029389706 -0.057099469
0.055999998 0.029022137 -0.056986421
