# .PCD v0.7 - Point Cloud Data file format
VERSION 0.7
FIELDS x y z
SIZE 4 4 4
TYPE F F F
COUNT 1 1 1
WIDTH 1239
HEIGHT 1
VIEWPOINT 0 0 0 1 0 0 0
POINTS 1239
DATA ascii
-0.027109938 0.0049059796 -0.0049999971
-0.025036089 0.0049370173 -0.0049999971
-0.023017053 0.0049769287 -0.0049999971
-0.020980569 0.0051220967 -0.0049999966
-0.018887553 0.0049033845 -0.0049999971
-0.016710546 0.0047620833 -0.0049999971
-0.01488064 0.0051053395 -0.0049999966
-0.012347832 0.0044854227 -0.0049999971
-0.010861883 0.0050683329 -0.0049999966
-0.009005758 0.0050244867 -0.0049999966
-0.0070948349 0.0050266162 -0.0049999971
-0.0050106007 0.0050041368 -0.0049999971
-0.0030033328 0.0050338549 -0.0049999971
-0.00091173599 0.0048902673 -0.0049999966
0.0010927247 0.0050106435 -0.0049999976
0.00299166 0.0050136759 -0.0049999966
0.0049490002 0.0049486128 -0.0049999971
0.0068746232 0.004965126 -0.0049999976
0.0094656656 0.0049400912 -0.0049999971
0.010914152 0.0050130477 -0.0049999971
0.013061149 0.0050101052 -0.0049999971
0.015108973 0.0049475948 -0.0049999971
0.016949302 0.0050231204 -0.0049999971
0.018748626 0.0046577873 -0.0049999966
0.02000881 0.0051621874 -0.0049999966
0.022997744 0.0050209612 -0.0049999966
0.02444643 0.0047918628 -0.0049999971
0.02766523 0.0043989997 -0.0049999971
0.028888216 0.0045247409 -0.0049999971
0.03097672 0.0050077178 -0.0049999966
0.032908864 0.0042743389 -0.0049999971
0.035131492 0.0050086277 -0.0049999971
0.036736991 0.0043834853 -0.0049999971
0.038227897 0.004656835 -0.0049999971
0.041027941 0.0049993591 -0.0049999971
0.043094106 0.0049679484 -0.0049999976
0.045019485 0.005040322 -0.0049999971
0.046998423 0.0049712802 -0.0049999966
0.048873127 0.005015952 -0.0049999971
0.050967738 0.0050255014 -0.0049999971
0.052989852 0.0049415776 -0.0049999971
0.055009574 0.0049976534 -0.0049999966
0.056980833 0.0049474598 -0.0049999966
0.059020214 0.0050874329 -0.0049999971
0.061069131 0.0050638039 -0.0049999971
0.063003458 0.0049962858 -0.0049999971
0.065035418 0.0049318569 -0.0049999966
0.066154681 0.0051067849 -0.0049999971
0.068061277 0.004528888 -0.0049999971
0.0710738 0.0049464963 -0.0049999971
0.073097907 0.0050578434 -0.0049999971
0.074928604 0.0049425093 -0.0049999971
0.076845147 0.0050008777 -0.0049999971
0.078955151 0.0049374043 -0.0049999971
0.080420487 0.004671264 -0.0049999971
0.08307381 0.0050623873 -0.0049999971
0.085093871 0.0049784691 -0.0049999966
0.085025936 0.0048928577 -0.0049999971
0.088757142 0.0050307405 -0.0047709942
-0.0862386 0.0065838406 -0.0047452142
-0.086955793 0.0072170687 -0.0049999976
-0.083733775 0.00653425 -0.0049999971
-0.081390806 0.0062515703 -0.0049999976
-0.081083015 0.0069130836 -0.0049999971
-0.078958295 0.0070138741 -0.0049999966
-0.077023335 0.0069727772 -0.0049999971
-0.075120479 0.0069855745 -0.0049999971
-0.072357155 0.0069531631 -0.0049999971
-0.070413195 0.0064645889 -0.0049999971
-0.068967819 0.0069732098 -0.0049999971
-0.066303432 0.0068505886 -0.0049999971
-0.065034375 0.0069975373 -0.0049999971
-0.061700393 0.0069199223 -0.0049999971
-0.061055183 0.0070119663 -0.0049999971
-0.058047123 0.0068397983 -0.0049999966
-0.056462578 0.0065678037 -0.0049999971
-0.055048376 0.0069471705 -0.0049999971
-0.052969526 0.0070716301 -0.0049999971
-0.051048938 0.0069760047 -0.0049999971
-0.049011711 0.0069273771 -0.0049999966
-0.047110114 0.0068929535 -0.0049999971
-0.045022607 0.0070736017 -0.0049999971
-0.04304859 0.0070255604 -0.0049999966
-0.04095263 0.0069549857 -0.0049999971
-0.03888059 0.0070536891 -0.0049999971
-0.036981639 0.0069149714 -0.0049999971
-0.03496848 0.0069659613 -0.0049999971
-0.033002127 0.0071446626 -0.0049999971
-0.029626744 0.0065587298 -0.0049999971
-0.029067704 0.0070059164 -0.0049999971
-0.026704388 0.0066670128 -0.0049999971
-0.024637628 0.0068264296 -0.0049999971
-0.023029473 0.0070791193 -0.0049999971
-0.0209757 0.007000634 -0.0049999966
-0.019017883 0.0069620102 -0.0049999966
-0.016910892 0.0070711551 -0.0049999971
-0.014998195 0.0069789151 -0.0049999971
-0.013233425 0.0062804846 -0.0049981899
-0.010891513 0.0070218262 -0.0049999971
-0.0089659309 0.0068838773 -0.0049999971
-0.0078192977 0.0066052661 -0.0049999971
-0.0050042532 0.0070222043 -0.0049999966
-0.0030200547 0.0071406108 -0.0049999971
-0.0011407414 0.0064290198 -0.0049999971
0.0009672264 0.0069543668 -0.0049999971
0.003065241 0.0070235627 -0.0049999966
0.0045097349 0.0069018337 -0.0049999971
0.0070743454 0.0069920053 -0.0049999971
0.0089271469 0.0070386711 -0.0049999966
0.011040529 0.0070523517 -0.0049999971
0.012986732 0.0069231577 -0.0049999971
0.015016745 0.007049826 -0.0049999971
0.016953364 0.0070871338 -0.0049999971
0.018933291 0.0069703748 -0.0049999971
0.020996662 0.0065185968 -0.0049999971
0.0228951 0.0069571161 -0.0049999966
0.025059192 0.0070777405 -0.0049999971
0.02702833 0.0069507156 -0.0049999971
0.029004548 0.0070277327 -0.0049999971
0.031042913 0.0069945212 -0.0049999971
0.03304854 0.0069713397 -0.0049999971
0.03499506 0.0069747204 -0.0049999971
0.037269328 0.0068060458 -0.0049999966
0.039019573 0.0069714352 -0.0049999971
0.041101385 0.006881068 -0.0049999966
0.04309646 0.0068973717 -0.0049999971
0.04352361 0.0068489215 -0.0049999971
0.047128797 0.0069124 -0.0049999971
0.048959948 0.0069673606 -0.0049999966
0.049687579 0.0062278579 -0.0049999971
0.05293645 0.0070921439 -0.0049999971
0.05516573 0.0069883564 -0.0049999971
0.057086043 0.0070115346 -0.0049999966
0.058956496 0.0069084726 -0.0049999971
0.060990751 0.0070027923 -0.0049999971
0.062953338 0.0070108464 -0.0049999966
0.063827321 0.0065759448 -0.0049999971
0.067085147 0.0069945962 -0.0049999971
0.067456119 0.006024783 -0.0049999971
0.069912612 0.0065463698 -0.0049999966
0.072960615 0.0069479141 -0.0049999966
0.07301531 0.0070063202 -0.0049999971
0.077121317 0.0071780658 -0.0049999971
0.079032369 0.0071204607 -0.0049999971
0.080959126 0.0071121841 -0.0049999966
0.082985111 0.0070264312 -0.0049999971
0.0850439 0.0070988433 -0.0049999971
0.086188003 0.0064068106 -0.0049999971
0.088749789 0.0069952668 -0.0047939527
-0.088747725 0.0089883823 -0.0047450839
-0.08699996 0.0090270936 -0.0049999971
-0.084982924 0.0089535238 -0.0049999971
-0.081352204 0.0088989614 -0.0049999971
-0.081007138 0.0089485794 -0.0049999971
-0.077328578 0.0086879572 -0.0049999971
-0.075601801 0.0083063776 -0.0049999976
-0.074929625 0.0089922417 -0.0049999971
-0.072975144 0.0090275146 -0.0049999966
-0.070861444 0.0089776497 -0.0049999966
-0.068912104 0.0089636762 -0.0049999971
-0.06698136 0.0090078115 -0.0049999966
-0.065022044 0.009042291 -0.0049999971
-0.062980063 0.0089044198 -0.0049999966
-0.060910076 0.008886612 -0.0049999971
-0.058958698 0.009042087 -0.0049999971
-0.054953333 0.0083230082 -0.0049999966
-0.0550154 0.0088443719 -0.0049999971
-0.053048544 0.0090276105 -0.0049999971
-0.050975803 0.009091991 -0.0049999971
-0.048974715 0.0090524545 -0.0049999966
-0.046991572 0.0089851199 -0.0049999966
-0.043673992 0.0084293578 -0.0049999971
-0.042747311 0.008573452 -0.0049999966
-0.041057467 0.0089482954 -0.0049999971
-0.038991101 0.0090631591 -0.0049999971
-0.036881045 0.0089868214 -0.0049999971
-0.035096712 0.0090599293 -0.0049999971
-0.032448187 0.0083074663 -0.0049999971
-0.030982712 0.0089290114 -0.0049999971
-0.027728939 0.0083103953 -0.0049999971
-0.026951429 0.0089188218 -0.0049999971
-0.024967754 0.0089890929 -0.0049999966
-0.0231042 0.0088736201 -0.0049999971
-0.021087265 0.0086870492 -0.0049999966
-0.019024629 0.009002381 -0.0049999971
-0.017010594 0.0089325961 -0.0049999971
-0.015039475 0.00893969 -0.0049999971
-0.012963615 0.0088884402 -0.0049999971
-0.010409261 0.0086693419 -0.0049999971
-0.0091742706 0.0085140998 -0.0049999971
-0.0070376121 0.0087498231 -0.0049999971
-0.005000676 0.0090088062 -0.0049999971
-0.0029756101 0.0090369601 -0.0049999966
-0.00027680583 0.0088254735 -0.0049999971
0.00097977021 0.008957847 -0.0049999971
0.0030169489 0.0089377649 -0.0049999971
0.004970504 0.0090284571 -0.0049999971
0.0061718686 0.0086688735 -0.0049999971
0.0081637669 0.0089021726 -0.0049999966
0.011027068 0.0089537473 -0.0049999971
0.013024489 0.0090829814 -0.0049999966
0.015130303 0.0090180766 -0.0049999966
0.015937364 0.0086426884 -0.0049999971
0.018119687 0.0082558533 -0.0049999971
0.020320753 0.0084671257 -0.0049999971
0.022990087 0.0090424567 -0.0049999971
0.024912357 0.0089429831 -0.0049999966
0.027375566 0.0087317172 -0.0049999966
0.028497789 0.0087419478 -0.0049999971
0.0309978 0.0090593984 -0.0049999971
0.033044916 0.0083411029 -0.0049999822
0.035075415 0.0090001328 -0.0049999971
0.036996312 0.0090036979 -0.0049999971
0.039057221 0.0090242727 -0.0049999971
0.041008506 0.0090843821 -0.0049999971
0.043067262 0.008948409 -0.0049999971
0.044425506 0.0082778307 -0.0049999971
0.046857301 0.0082531376 -0.0049999971
0.049064148 0.0089902002 -0.0049999971
0.050936151 0.0090486342 -0.0049999971
0.053034794 0.0089955749 -0.0049999966
0.055039357 0.0090015121 -0.0049999971
0.057006069 0.0090213539 -0.0049999966
0.058864571 0.0088457009 -0.0049999966
0.061017875 0.0089953104 -0.0049999971
0.062960826 0.0089612957 -0.0049999971
0.064943984 0.0089688022 -0.0049999976
0.067054868 0.0089822076 -0.0049999971
0.068974368 0.0090802601 -0.0049999966
0.071030185 0.0089841466 -0.0049999971
0.073060475 0.0088962605 -0.0049999971
0.074908182 0.0091093406 -0.0049999971
0.074828856 0.0078312801 -0.0049984371
0.078924224 0.0089450795 -0.0049999971
0.080912367 0.0089445151 -0.0049999966
0.083001882 0.0089665856 -0.0049999966
0.084485963 0.0090770023 -0.0049999971
0.08702857 0.0090499446 -0.0049999971
0.088766597 0.0089985486 -0.0047601606
-0.08876133 0.01102847 -0.0047908677
-0.086959578 0.011055513 -0.0049999971
-0.085002869 0.01086939 -0.0049999971
-0.08301755 0.010917647 -0.0049999971
-0.081057116 0.010956252 -0.0049999971
-0.078294747 0.011078729 -0.0049999971
-0.076974779 0.010987528 -0.0049999971
-0.075062476 0.01107712 -0.0049999971
-0.072938606 0.011133917 -0.0049999971
-0.071030512 0.010982128 -0.0049999966
-0.069023147 0.010972859 -0.0049999966
-0.066927031 0.011112172 -0.0049999971
-0.064881228 0.01081869 -0.0049999966
-0.06266354 0.010609847 -0.0049999971
-0.061041992 0.010930207 -0.0049999966
-0.058930248 0.010904577 -0.0049999971
-0.055041242 0.0099625532 -0.0049999971
-0.054853257 0.010802149 -0.0049999971
-0.052905358 0.011138352 -0.0049999966
-0.051021799 0.010999154 -0.0049999971
-0.047879264 0.010401112 -0.0049999971
-0.046917982 0.011011838 -0.0049999971
-0.044982933 0.011099621 -0.0049999971
-0.043172501 0.010451565 -0.0049999971
-0.040957779 0.01096428 -0.0049999971
-0.039035641 0.010995298 -0.0049999971
-0.036954235 0.011128351 -0.0049999966
-0.035035487 0.010925454 -0.0049999971
-0.032933302 0.011006417 -0.0049999966
-0.030959442 0.010987896 -0.0049999971
-0.028947692 0.011079627 -0.0049999971
-0.027041417 0.010969447 -0.0049999971
-0.025379244 0.010840974 -0.0049999976
-0.02289447 0.010173306 -0.0049999971
-0.020948008 0.010947498 -0.0049999971
-0.018891392 0.011048974 -0.0049999971
-0.016940668 0.011009571 -0.0049999966
-0.014887902 0.010928082 -0.0049999971
-0.013007058 0.01093534 -0.0049999971
-0.011091243 0.010983628 -0.0049999976
-0.0089383265 0.011004659 -0.0049999966
-0.0069325813 0.010909653 -0.0049999971
-0.0050189905 0.010961661 -0.0049999971
-0.0029838781 0.010981105 -0.0049999971
-0.00096242625 0.010850451 -0.0049999971
0.00099222432 0.011017429 -0.0049999971
0.0029883739 0.011058851 -0.0049999966
0.00599994 0.010898832 -0.0049999971
0.0070319897 0.011094713 -0.0049999971
0.0089692418 0.010950973 -0.0049999966
0.010930562 0.011013787 -0.0049999971
0.013101476 0.010979136 -0.0049999971
0.014989207 0.011019111 -0.0049999971
0.01704672 0.010973643 -0.0049999971
0.017993918 0.010529147 -0.0049999971
0.021609593 0.010740525 -0.0049999971
0.022987979 0.011026463 -0.0049999966
0.024879159 0.010868262 -0.0049999971
0.026107039 0.01016401 -0.0049999971
0.028970268 0.011047854 -0.0049999971
0.030028567 0.01028946 -0.0049999971
0.033085465 0.011037599 -0.0049999971
0.035074539 0.010994186 -0.0049999971
0.037143562 0.011070271 -0.0049999966
0.039107881 0.010947319 -0.0049999966
0.039950419 0.010919767 -0.0049999971
0.043068122 0.010928962 -0.0049999966
0.04507808 0.010999669 -0.0049999966
0.046889879 0.011086541 -0.0049999971
0.04906404 0.011062368 -0.0049999971
0.05101179 0.010952146 -0.0049999971
0.052943278 0.011067723 -0.0049999971
0.055314925 0.010819651 -0.0049999971
0.056077473 0.010649964 -0.0049999971
0.058971521 0.011068011 -0.0049999971
0.061013818 0.01099487 -0.0049999971
0.062911361 0.01097622 -0.0049999971
0.065020062 0.010988785 -0.0049999971
0.06695509 0.010920884 -0.0049999966
0.069023475 0.010897268 -0.0049999971
0.070625208 0.010723859 -0.0049999971
0.073038742 0.010913743 -0.0049999971
0.074863546 0.010936316 -0.0049999971
0.076976702 0.010999455 -0.0049999966
0.078988515 0.011034429 -0.0049999971
0.080929168 0.011077263 -0.0049999971
0.082926482 0.010971578 -0.0049999966
0.084997579 0.010958369 -0.0049999966
0.087067612 0.010979346 -0.0049999966
0.088778198 0.010471749 -0.0047051981
-0.086516961 0.012503962 -0.0047144899
-0.086894691 0.01295894 -0.0049999971
-0.085027091 0.013041697 -0.0049999971
-0.082964696 0.013065509 -0.0049999966
-0.081092142 0.013011441 -0.0049999966
-0.077722296 0.012627601 -0.0049999966
-0.077017389 0.013112051 -0.0049999971
-0.073877037 0.012756173 -0.0049999971
-0.073022172 0.01302005 -0.0049999966
-0.070973851 0.013036856 -0.0049999976
-0.068980522 0.012961463 -0.0049999966
-0.067059226 0.013062247 -0.0049999971
-0.06500946 0.013048781 -0.0049999971
-0.063033156 0.012919526 -0.0049999971
-0.059668001 0.013008189 -0.0049999966
-0.059039313 0.01291887 -0.0049999971
-0.055945281 0.012689447 -0.0049999971
-0.055055406 0.013031255 -0.0049999971
-0.052870821 0.012348457 -0.0049999966
-0.050940033 0.012912463 -0.0049999971
-0.049044009 0.013136603 -0.0049999971
-0.046614107 0.012643564 -0.0049999971
-0.044997338 0.012996943 -0.0049999971
-0.043048635 0.013058304 -0.0049999966
-0.041017659 0.013035673 -0.0049999971
-0.03897519 0.012958266 -0.0049999976
-0.036945369 0.013023228 -0.0049999971
-0.034936979 0.012923234 -0.0049999971
-0.033105619 0.012984151 -0.0049999971
-0.030976219 0.013027139 -0.0049999971
-0.029007317 0.012993179 -0.0049999971
-0.027038323 0.013049103 -0.0049999971
-0.025006004 0.013032374 -0.0049999966
-0.022958847 0.012979973 -0.0049999971
-0.019943107 0.012629907 -0.0049999966
-0.018975884 0.012991907 -0.0049999971
-0.017039359 0.013038463 -0.0049999971
-0.015000081 0.012942242 -0.0049999971
-0.012911444 0.013081573 -0.0049999971
-0.010911511 0.013014158 -0.0049999971
-0.0090882145 0.013019579 -0.0049999971
-0.0068149958 0.012396332 -0.0049999971
-0.0050014812 0.012988144 -0.0049999971
-0.0030563534 0.013046942 -0.0049999971
-0.0010213684 0.013003204 -0.0049999971
0.00056694343 0.01266778 -0.0049999971
0.0023657046 0.012722813 -0.0049999971
0.005006609 0.012887619 -0.0049999971
0.0069618761 0.013084861 -0.0049999976
0.0089529408 0.012960969 -0.0049999971
0.010949608 0.013045891 -0.0049999971
0.013027783 0.013028087 -0.0049999966
0.01497958 0.0129248 -0.0049999971
0.016936589 0.01294691 -0.0049999971
0.01901689 0.012974151 -0.0049999966
0.020949699 0.013056457 -0.0049999971
0.022008443 0.012515646 -0.0049999966
0.024536209 0.012093053 -0.0049999971
0.026999012 0.013045895 -0.0049999976
0.028912243 0.012905568 -0.0049999971
0.030970456 0.013073558 -0.0049999976
0.033157151 0.012870796 -0.0049999971
0.034997553 0.012945822 -0.0049999971
0.035985317 0.012659357 -0.0049999971
0.039060112 0.013069505 -0.0049999971
0.040955335 0.012979322 -0.0049999971
0.043059625 0.013041548 -0.0049999971
0.045441821 0.012752087 -0.0049999971
0.046954267 0.01305818 -0.0049999966
0.049066681 0.012953391 -0.0049999971
0.049524311 0.012306916 -0.0049999971
0.052919891 0.013137 -0.0049999971
0.054338031 0.0127677 -0.0049999966
0.056962136 0.012975783 -0.0049999971
0.059093572 0.013042955 -0.0049999971
0.061094359 0.012990568 -0.0049999971
0.063076966 0.01303398 -0.0049999966
0.064966179 0.013067248 -0.0049999971
0.066202715 0.012561858 -0.0049999966
0.069018334 0.013058773 -0.0049999971
0.07098949 0.012973851 -0.0049999966
0.071559921 0.012534954 -0.0049999971
0.073794745 0.012396868 -0.0049999971
0.076234877 0.012906811 -0.0049999971
0.077992111 0.01248691 -0.0049999966
0.079959333 0.012956353 -0.0049999971
0.083023995 0.012985095 -0.0049999971
0.085061468 0.012883566 -0.0049999971
0.087089047 0.013025801 -0.0049978048
0.088739753 0.013070686 -0.0047540665
-0.088735856 0.015057122 -0.0048026107
-0.087005585 0.015064316 -0.0049999971
-0.084961958 0.015023826 -0.0049999971
-0.08303111 0.014964047 -0.0049999966
-0.081054449 0.015048708 -0.0049999971
-0.079003163 0.01495591 -0.0049999971
-0.07641843 0.014391253 -0.0049999971
-0.075050324 0.014970914 -0.0049999971
-0.073032662 0.015047442 -0.0049999966
-0.071114041 0.014961652 -0.0049999966
-0.068936817 0.014951503 -0.0049999971
-0.067001827 0.014940068 -0.0049999971
-0.064996697 0.015094907 -0.0049999976
-0.062923312 0.015116872 -0.0049999971
-0.061168872 0.014847817 -0.0049999971
-0.05903466 0.015007387 -0.0049999976
-0.056957636 0.014882778 -0.0049999971
-0.054951381 0.014987135 -0.0049999971
-0.053015634 0.015027056 -0.0049999971
-0.049727615 0.014102221 -0.0049999966
-0.049007893 0.014924595 -0.0049999971
-0.046873722 0.015062339 -0.0049999971
-0.045061845 0.015042104 -0.0049999966
-0.042959869 0.01498119 -0.0049999971
-0.040943354 0.015035833 -0.0049999971
-0.039099172 0.015045182 -0.0049999971
-0.03709238 0.015080339 -0.0049999971
-0.035040233 0.014943955 -0.0049999976
-0.032927603 0.014878083 -0.0049999971
-0.031074142 0.015000777 -0.0049999971
-0.028955607 0.014984475 -0.0049999971
-0.02690972 0.014940976 -0.0049999971
-0.024983779 0.014895239 -0.0049999971
-0.023035867 0.015030844 -0.0049999966
-0.020935571 0.015030033 -0.0049999971
-0.019888535 0.014916231 -0.0049962741
-0.017592236 0.014965527 -0.0049999966
-0.01433825 0.014942758 -0.0049999971
-0.012963859 0.015033554 -0.0049999971
-0.010897337 0.015059172 -0.0049999971
-0.0086346073 0.014247959 -0.0049969885
-0.0078404043 0.014272915 -0.0049999971
-0.0056310296 0.014380882 -0.0049999966
-0.00299661 0.014970846 -0.0049999966
-0.0019218815 0.014681037 -0.0049999971
0.0011211553 0.014415202 -0.0049999971
0.0029970354 0.014992489 -0.0049999971
0.005086205 0.014937391 -0.0049999971
0.0069704293 0.015011202 -0.0049999976
0.0089748064 0.014920409 -0.0049999971
0.010989445 0.014996818 -0.0049999971
0.012979739 0.014892195 -0.0049999971
0.014998971 0.015005105 -0.0049999971
0.017549548 0.014579591 -0.0049999971
0.01897976 0.015042349 -0.0049999971
0.021035016 0.014941477 -0.0049999971
0.022944672 0.015031631 -0.0049999971
0.025118448 0.015085015 -0.0049999966
0.027016778 0.014989833 -0.0049999971
0.02796747 0.014804426 -0.0049999966
0.031029243 0.015092144 -0.0049999971
0.033040617 0.015002491 -0.0049999971
0.034922764 0.015036721 -0.0049999966
0.036929201 0.015062463 -0.0049999966
0.038990431 0.015060289 -0.0049999971
0.040599678 0.014356838 -0.0049999971
0.043061934 0.015083244 -0.0049999971
0.044842009 0.014929889 -0.0049999966
0.047076508 0.014922287 -0.0049999971
0.048967201 0.014957881 -0.0049999966
0.051017385 0.014918086 -0.0049999971
0.053028878 0.015042062 -0.0049999971
0.054878067 0.015003579 -0.0049999966
0.057080179 0.014916057 -0.0049999971
0.059041467 0.014898009 -0.0049999976
0.061157048 0.014900292 -0.0049999971
0.06304355 0.015041731 -0.0049999976
0.065042116 0.015024389 -0.0049999966
0.066984616 0.015062977 -0.0049999971
0.0689677 0.01506652 -0.0049999971
0.070960626 0.014926681 -0.0049999971
0.072923996 0.015022505 -0.0049999971
0.074959151 0.015053499 -0.0049999971
0.076979712 0.014947419 -0.0049999971
0.079008669 0.015112861 -0.0049999966
0.08104419 0.014975837 -0.0049999971
0.080594406 0.014188708 -0.0049999971
0.085004218 0.014940045 -0.0049999971
0.086219102 0.014435816 -0.0049999971
0.08872398 0.014952668 -0.0047523673
-0.088762879 0.016862568 -0.0047768042
-0.086922586 0.016992141 -0.0049999971
-0.085096091 0.016979817 -0.0049999966
-0.083009787 0.016997669 -0.0049999971
-0.08100114 0.017004646 -0.0049999971
-0.078283586 0.016312053 -0.0049999966
-0.077052802 0.017059244 -0.0049999971
-0.075070277 0.017016111 -0.0049999971
-0.072950639 0.016828688 -0.0049999971
-0.07101047 0.016920481 -0.0049999971
-0.06693837 0.016340405 -0.0049999976
-0.067053765 0.017056504 -0.0049999966
-0.064988777 0.017000599 -0.0049999971
-0.062982842 0.016976269 -0.0049999971
-0.061016519 0.016909413 -0.0049999971
-0.058911555 0.017016388 -0.0049999976
-0.056989096 0.016925294 -0.0049999971
-0.053920727 0.016645327 -0.0049999971
-0.053007595 0.017056458 -0.0049999971
-0.050987281 0.016578678 -0.0049999966
-0.048948321 0.016997553 -0.0049999971
-0.046964467 0.01704834 -0.0049999971
-0.044645682 0.01633849 -0.0049999971
-0.042953242 0.017052203 -0.0049999971
-0.040955484 0.01635411 -0.0049999971
-0.038946386 0.01707688 -0.0049999971
-0.037098791 0.016966991 -0.0049999966
-0.035058387 0.017044557 -0.0049999971
-0.032992784 0.016826455 -0.0049999971
-0.030967869 0.017038098 -0.0049999971
-0.029009534 0.017063051 -0.0049999971
-0.027033813 0.01699405 -0.0049999971
-0.025012514 0.016989846 -0.0049999966
-0.022997456 0.017068667 -0.0049999971
-0.02105535 0.017039698 -0.0049999966
-0.019016046 0.016946292 -0.0049999966
-0.016955229 0.016937749 -0.0049999966
-0.014874489 0.016889665 -0.0049999971
-0.012429276 0.016177142 -0.0049999971
-0.010909656 0.017012723 -0.0049999966
-0.0089192614 0.016986411 -0.0049999971
-0.00701113 0.016889432 -0.0049999971
-0.0047935788 0.016525697 -0.0049999696
-0.0021283666 0.016342372 -0.0049999971
-0.0019561755 0.016852502 -0.0049999966
0.00097995007 0.016996969 -0.0049999971
0.0028936572 0.017057013 -0.0049999971
0.0049115401 0.016914962 -0.0049999971
0.0061173709 0.016968142 -0.0049999971
0.0090742782 0.016996378 -0.0049999966
0.010632105 0.016539866 -0.0049999971
0.013022612 0.016994815 -0.0049999966
0.014332843 0.016708154 -0.0049999966
0.017040314 0.017046189 -0.0049999971
0.018958662 0.016991103 -0.0049999971
0.020955121 0.016991641 -0.0049999971
0.023005154 0.017063728 -0.0049999971
0.024974179 0.01711181 -0.0049999966
0.026996866 0.017044503 -0.0049999971
0.028958328 0.016880302 -0.0049999966
0.030927634 0.016819712 -0.0049999971
0.033002283 0.016949015 -0.0049999966
0.034280747 0.016314443 -0.0049999971
0.037007421 0.017011171 -0.0049999971
0.039047088 0.01703855 -0.0049999971
0.041084833 0.016969338 -0.0049999966
0.043088265 0.016972458 -0.0049999971
0.045047987 0.016959714 -0.0049999971
0.04697638 0.017030597 -0.0049999971
0.048921213 0.017038446 -0.0049999971
0.050953742 0.016984846 -0.0049999971
0.052889735 0.017035536 -0.0049999971
0.055052347 0.017060233 -0.0049999971
0.057011269 0.017005377 -0.0049999971
0.057525281 0.016299702 -0.0049999966
0.061041951 0.016977975 -0.0049999971
0.062929757 0.017032614 -0.0049999976
0.064971767 0.017032696 -0.0049999971
0.06703718 0.016983848 -0.0049999971
0.066462807 0.016532043 -0.0049999971
0.070941351 0.017052233 -0.0049999971
0.072313108 0.01651844 -0.0049999966
0.074955717 0.01692516 -0.0049999966
0.076983184 0.01698352 -0.0049999971
0.079033643 0.017009033 -0.0049999971
0.078796208 0.015989585 -0.0049999971
0.083006829 0.016968861 -0.0049999971
0.084930249 0.016329797 -0.0049999971
0.086933397 0.017035892 -0.0049999971
0.085939869 0.016529791 -0.0047310973
-0.088741809 0.019077526 -0.0047084168
-0.087063901 0.018980257 -0.0049999971
-0.084982634 0.018982746 -0.0049999966
-0.08296141 0.0190269 -0.0049999971
-0.080975212 0.018878512 -0.0049999971
-0.079038069 0.018989148 -0.0049999971
-0.077103645 0.018962348 -0.0049999971
-0.075018249 0.019017786 -0.0049999971
-0.073036201 0.019051814 -0.0049999966
-0.070990287 0.018962169 -0.0049999971
-0.068904601 0.01912903 -0.0049999971
-0.066970021 0.018916925 -0.0049999971
-0.064987324 0.019076452 -0.0049999966
-0.063005552 0.018963426 -0.0049999971
-0.061043382 0.019155752 -0.0049999966
-0.05874832 0.018903224 -0.0049999966
-0.057005916 0.018938608 -0.0049999971
-0.054963853 0.019123293 -0.0049999971
-0.052964453 0.01903368 -0.0049999971
-0.050227035 0.018517271 -0.0049999971
-0.04902472 0.019000372 -0.0049999971
-0.046943221 0.018909317 -0.0049999971
-0.043552607 0.018183766 -0.0049999971
-0.042947348 0.018990198 -0.0049999971
-0.041109726 0.018981658 -0.0049999966
-0.039020605 0.018959273 -0.0049999971
-0.03699458 0.019022383 -0.0049999966
-0.034924548 0.018960372 -0.0049999966
-0.032485217 0.018209685 -0.0049999971
-0.031073384 0.018948365 -0.0049999971
-0.028852349 0.019060267 -0.0049999976
-0.026958127 0.018934038 -0.0049999966
-0.023865579 0.018756602 -0.0049999971
-0.022068139 0.018429086 -0.0049999966
-0.021064002 0.018972483 -0.0049999971
-0.019440586 0.018480832 -0.0049999971
-0.017019626 0.01891068 -0.0049999971
-0.01498597 0.019051401 -0.0049999971
-0.012921323 0.019044951 -0.0049999971
-0.010993669 0.018987631 -0.0049999966
-0.0089697549 0.019168561 -0.0049999971
-0.0070071165 0.019028941 -0.0049999966
-0.0049897055 0.01902305 -0.0049999966
-0.0029703844 0.018984253 -0.0049999971
-0.00096991361 0.018989716 -0.0049999971
0.0010276956 0.018959012 -0.0049999971
0.0020706812 0.018969387 -0.0049999966
0.0049947384 0.018960107 -0.0049999971
0.0077761323 0.018881254 -0.0049999971
0.0090924967 0.019063091 -0.0049999971
0.01111832 0.01836982 -0.0049999971
0.01270803 0.018084595 -0.0049999971
0.01506389 0.018970987 -0.0049999971
0.016971387 0.019014401 -0.0049999971
0.01901328 0.018957336 -0.0049999971
0.020954909 0.019009024 -0.0049999971
0.023029849 0.018935414 -0.0049999976
0.024986051 0.019029409 -0.0049999966
0.027021134 0.018988835 -0.0049999971
0.029103605 0.019017139 -0.0049999966
0.031004714 0.018997725 -0.0049999966
0.032887772 0.019098589 -0.0049999966
0.035003506 0.019067308 -0.0049999971
0.03692048 0.019050496 -0.0049999966
0.038948029 0.019055825 -0.0049999971
0.04109174 0.018982537 -0.0049999971
0.041047916 0.017673504 -0.0049999966
0.044774033 0.018405823 -0.0049999966
0.047077686 0.019046476 -0.0049999966
0.047716904 0.018634045 -0.0049999966
0.050911773 0.018919257 -0.0049999971
0.052492376 0.018897455 -0.0049999971
0.055048391 0.019022662 -0.0049999966
0.057050664 0.019008368 -0.0049999971
0.059160005 0.018986762 -0.0049999971
0.059360724 0.018820906 -0.0049999971
0.06303969 0.019141819 -0.0049999971
0.064672559 0.018607311 -0.0049999971
0.066969842 0.018944962 -0.0049999971
0.069024563 0.018978745 -0.0049999966
0.070941091 0.019039329 -0.0049999971
0.073044159 0.018942174 -0.0049999976
0.072628871 0.018357337 -0.0049999971
0.075586505 0.018879201 -0.0049999966
0.078994878 0.01889601 -0.0049999971
0.080869555 0.018591074 -0.0049999971
0.082993791 0.019141138 -0.0049999976
0.084978193 0.019087244 -0.0049999971
0.087023154 0.01908879 -0.0049999971
0.085989647 0.017662304 -0.0047413367
-0.088711053 0.021020459 -0.0047622984
-0.087013438 0.020926839 -0.0049999971
-0.084998071 0.021043651 -0.0049999966
-0.08301492 0.020962825 -0.0049999971
-0.079125777 0.020636594 -0.0049999976
-0.078959644 0.020945955 -0.0049999971
-0.076866753 0.021091331 -0.0049999976
-0.074972689 0.020914331 -0.0049999971
-0.072998121 0.020819578 -0.0049999971
-0.071104683 0.021084394 -0.0049999971
-0.069071196 0.020870591 -0.0049999971
-0.067049801 0.021074809 -0.0049999971
-0.064987004 0.021025104 -0.0049999966
-0.063032299 0.020831039 -0.0049999971
-0.061023377 0.021174192 -0.0049999966
-0.058997285 0.021080721 -0.0049999966
-0.05536804 0.019899132 -0.0049978895
-0.055006374 0.02092398 -0.0049999971
-0.053016882 0.021011418 -0.0049999971
-0.050932586 0.021056512 -0.0049999971
-0.049018603 0.021126881 -0.0049999971
-0.046986535 0.021183765 -0.0049999971
-0.044984929 0.021082127 -0.0049999971
-0.043045927 0.021008516 -0.0049999971
-0.040549491 0.020244161 -0.0049999971
-0.03894227 0.021029072 -0.0049999971
-0.036220144 0.019552769 -0.0049999971
-0.034942608 0.021028426 -0.0049999971
-0.032966688 0.021031985 -0.0049999971
-0.03021129 0.020321677 -0.0049999971
-0.028900063 0.021105252 -0.0049999966
-0.02690082 0.02100474 -0.0049999971
-0.02467097 0.020632248 -0.0049999971
-0.022800399 0.020309646 -0.0049999966
-0.020887302 0.020962797 -0.0049999971
-0.019487301 0.020493664 -0.0049999966
-0.016914444 0.020271661 -0.0049999966
-0.013885951 0.02041108 -0.0049999976
-0.012483457 0.020635126 -0.0049999971
-0.011011684 0.020900561 -0.0049999971
-0.0090494454 0.021005893 -0.0049999966
-0.007001041 0.02105958 -0.0049999971
-0.0049320008 0.020987939 -0.0049999971
-0.0039731786 0.02037596 -0.0049999971
-0.0010152508 0.020956716 -0.0049999966
0.0011181091 0.02105665 -0.0049999976
0.0028001913 0.02104931 -0.0049999966
0.0053714272 0.020683041 -0.0049999966
0.0069777807 0.020943739 -0.0049999971
0.0089310212 0.020930657 -0.0049999971
0.010890303 0.02086886 -0.0049999971
0.013046988 0.021128239 -0.0049999971
0.014998644 0.020957062 -0.0049999971
0.017031383 0.021015497 -0.0049999971
0.018986061 0.021037374 -0.0049999971
0.020968787 0.02098049 -0.0049999966
0.022958696 0.020911401 -0.0049999971
0.024913993 0.020224394 -0.0049999971
0.026998309 0.020997927 -0.0049999976
0.029045172 0.020950358 -0.0049999966
0.030987743 0.021037513 -0.0049999971
0.033020817 0.021076938 -0.0049999971
0.034904383 0.021055838 -0.0049999971
0.036949959 0.020889003 -0.0049999971
0.038960539 0.021006089 -0.0049999971
0.040995795 0.02088677 -0.0049999971
0.043090187 0.020560527 -0.0049999966
0.044899292 0.020944899 -0.0049999971
0.047107745 0.020922974 -0.0049999971
0.0490194 0.020654717 -0.0049999971
0.049428441 0.02081638 -0.0049999971
0.053331908 0.02058774 -0.0049999971
0.055070434 0.021018405 -0.0049999966
0.057052966 0.021006022 -0.0049999971
0.058164198 0.020728296 -0.0049999966
0.060902204 0.020793419 -0.0049999971
0.063019231 0.020929985 -0.0049999966
0.063832901 0.020404106 -0.0049999966
0.067145482 0.020941241 -0.0049999971
0.069066592 0.020277107 -0.0049999971
0.070927948 0.021016784 -0.0049999971
0.073041089 0.020799933 -0.0049999971
0.073019512 0.020765385 -0.0049999971
0.076258563 0.02040435 -0.0049999971
0.078685179 0.02087217 -0.0049999966
0.079279117 0.020707157 -0.0049999971
0.083114028 0.020958105 -0.0049999976
0.084920451 0.021056047 -0.0049999971
0.084314637 0.020070048 -0.0049999817
0.08880125 0.020895276 -0.0047511077
-0.088705786 0.022959424 -0.0047510834
-0.087049231 0.023029776 -0.0049999971
-0.085065365 0.022904044 -0.0049999971
-0.082966387 0.022620697 -0.0049999971
-0.080978751 0.023049824 -0.0049999971
-0.078639694 0.022852922 -0.0049999971
-0.077101074 0.023027524 -0.0049999971
-0.075004354 0.023021953 -0.0049999971
-0.072997481 0.022979625 -0.0049999971
-0.070917927 0.023039268 -0.0049999966
-0.068956859 0.023037611 -0.0049999971
-0.066996619 0.022937872 -0.0049999971
-0.065054983 0.023051495 -0.0049999966
-0.062919043 0.023126138 -0.0049999971
-0.061119508 0.023004586 -0.0049999971
-0.058990542 0.02291611 -0.0049999971
-0.057020672 0.02305796 -0.0049999971
-0.054939035 0.023026999 -0.0049999966
-0.052883822 0.023095699 -0.0049999971
-0.050919697 0.023005972 -0.0049999971
-0.048955631 0.022989709 -0.0049999971
-0.046332046 0.022308612 -0.0049999971
-0.045007206 0.022936594 -0.0049999971
-0.043018598 0.022915913 -0.0049999971
-0.041045636 0.022978285 -0.0049999976
-0.039041147 0.023162292 -0.0049999966
-0.03704042 0.022999814 -0.0049999971
-0.03520282 0.023018191 -0.0049999976
-0.033297814 0.023003966 -0.0049999971
-0.031066997 0.022967154 -0.0049999971
-0.029014543 0.022839254 -0.0049999971
-0.027035885 0.023049382 -0.0049999966
-0.024993943 0.022946533 -0.0049999966
-0.022291919 0.022314971 -0.0049999971
-0.021085504 0.023087611 -0.0049999976
-0.019015549 0.022876393 -0.0049999971
-0.016907807 0.023050871 -0.0049999971
-0.015116116 0.02296092 -0.0049999971
-0.011941146 0.022426389 -0.004999957
-0.01096863 0.023097428 -0.0049999971
-0.0091166319 0.022935603 -0.0049999971
-0.0059129321 0.02231358 -0.0049999971
-0.0050566145 0.022949263 -0.0049999966
-0.0032527149 0.022528369 -0.0049999971
-0.0019530143 0.022276172 -0.0049999966
0.00046470467 0.022930216 -0.0049999966
0.0029652591 0.022960011 -0.0049999966
0.005049922 0.022999376 -0.0049999966
0.0070102438 0.022954425 -0.0049999971
0.0088348975 0.022962973 -0.0049999971
0.010901584 0.022967646 -0.0049999971
0.013471573 0.022111742 -0.0049999966
0.012796643 0.022075102 -0.0049969801
0.016986568 0.023031687 -0.0049999971
0.019119924 0.023030883 -0.0049999971
0.020971891 0.023024997 -0.0049999966
0.023060769 0.022962831 -0.0049999971
0.025476323 0.022106608 -0.0049999971
0.027090669 0.023058146 -0.0049999971
0.029050564 0.023034664 -0.0049999971
0.031061867 0.022920575 -0.0049999971
0.033031382 0.022994131 -0.0049999971
0.035234369 0.022208232 -0.0049999971
0.036939234 0.022947164 -0.0049999971
0.038779568 0.022340577 -0.0049999971
0.040955611 0.022077946 -0.0049999971
0.042905934 0.022671288 -0.0049999971
0.045067441 0.023117512 -0.0049999971
0.046879318 0.023036508 -0.0049999966
0.048915386 0.023026776 -0.0049999966
0.050944977 0.023001034 -0.0049999971
0.052934505 0.022926845 -0.0049999971
0.054938592 0.02300874 -0.0049999966
0.056971442 0.023029599 -0.0049999971
0.058966849 0.022991091 -0.0049999971
0.060965858 0.022939617 -0.0049999971
0.063087359 0.023003986 -0.0049999966
0.064955384 0.023071587 -0.0049999966
0.067049854 0.023099793 -0.0049999971
0.06895721 0.022907497 -0.0049999971
0.071062058 0.022973316 -0.0049999976
0.07301423 0.022911863 -0.0049999966
0.075080127 0.022070611 -0.0049983761
0.077089198 0.023008324 -0.0049999966
0.078953587 0.02306778 -0.0049999971
0.080940649 0.022602998 -0.0049999971
0.081156462 0.022371065 -0.0049999547
0.084956788 0.022999033 -0.0049999971
0.087148517 0.02298495 -0.0049999971
0.088730223 0.022893978 -0.0047848276
-0.088742994 0.025005905 -0.0047703083
-0.086985618 0.024904279 -0.0049999971
-0.085021958 0.025031591 -0.0049999971
-0.081497192 0.024880905 -0.0049999971
-0.079289392 0.024248291 -0.0049999966
-0.079011604 0.02499735 -0.0049999971
-0.07694041 0.024931896 -0.0049999971
-0.074873626 0.025005121 -0.0049999971
-0.073038302 0.025005238 -0.0049999971
-0.070034578 0.024256695 -0.0049999971
-0.069060691 0.024970738 -0.0049999971
-0.066657603 0.024632182 -0.0049999966
-0.065024421 0.025058161 -0.0049999966
-0.063115969 0.02512165 -0.0049999971
-0.060237341 0.024342569 -0.0049999971
-0.058896404 0.024989465 -0.0049999966
-0.057032894 0.024946557 -0.0049999966
-0.055059209 0.024959929 -0.0049999971
-0.05290005 0.024989581 -0.0049999971
-0.050055817 0.024966158 -0.0049999966
-0.049034648 0.025109945 -0.0049999971
-0.046884812 0.025023209 -0.0049999971
-0.045016684 0.024993252 -0.0049999971
-0.042139482 0.02440038 -0.0049999971
-0.040972542 0.025001071 -0.0049999966
-0.039100349 0.024501232 -0.0049999971
-0.036947191 0.024894128 -0.0049999976
-0.035046466 0.025049176 -0.0049999971
-0.031085502 0.024284532 -0.0049962862
-0.031102592 0.024938289 -0.0049999971
-0.028975602 0.024939127 -0.0049999971
-0.026909932 0.025029996 -0.0049999971
-0.023856733 0.024494741 -0.0049999971
-0.02295088 0.024950344 -0.0049999971
-0.021053515 0.024914404 -0.0049999971
-0.018940143 0.024774382 -0.0049999966
-0.016982663 0.025113303 -0.0049999971
-0.015043737 0.025073394 -0.0049999971
-0.013553286 0.024083452 -0.0049999971
-0.011087201 0.024920538 -0.0049999971
-0.0089730732 0.024886962 -0.0049999971
-0.0070947302 0.024899883 -0.0049999966
-0.0050472589 0.024948314 -0.0049999971
-0.0030423847 0.025013175 -0.0049999971
-0.00045506452 0.024128813 -0.0049999971
0.00099991274 0.02496375 -0.0049999971
0.0030204786 0.024942765 -0.0049999971
0.0050455327 0.025018077 -0.0049999971
0.0064630006 0.02440246 -0.0049999971
0.0091243908 0.024269016 -0.0049999971
0.0099246735 0.024849908 -0.0049999971
0.013021216 0.025061332 -0.0049999971
0.015158267 0.024358392 -0.0049999971
0.016860167 0.025106629 -0.0049999971
0.019108063 0.024823138 -0.0049999971
0.021035029 0.024893478 -0.0049999971
0.023115423 0.024933636 -0.0049999971
0.024968905 0.025064718 -0.0049999971
0.026936576 0.025063178 -0.0049999971
0.028958594 0.024993369 -0.0049999971
0.030978693 0.024884798 -0.0049999971
0.032967888 0.024983056 -0.0049999976
0.035046287 0.024981944 -0.0049999971
0.036866661 0.025064442 -0.0049999971
0.03893004 0.024942849 -0.0049999971
0.041476008 0.0244765 -0.0049999971
0.042932477 0.024892598 -0.0049999966
0.045055412 0.024940457 -0.0049999971
0.047018144 0.025068581 -0.0049999971
0.048838194 0.024987675 -0.0049999971
0.050924465 0.025036458 -0.0049999971
0.052958243 0.024932165 -0.0049999971
0.055109758 0.02498728 -0.0049999976
0.056974538 0.024985762 -0.0049999966
0.058814708 0.024942767 -0.0049999971
0.060710713 0.024230134 -0.0049999971
0.062993683 0.025034957 -0.0049999966
0.063683607 0.024697788 -0.0049999971
0.067134432 0.025023 -0.0049999971
0.069023579 0.025008123 -0.0049999971
0.071024127 0.024949098 -0.0049999966
0.072948754 0.025024731 -0.0049999971
0.075044096 0.02491943 -0.0049999966
0.077053823 0.024969632 -0.0049999971
0.079143368 0.02491942 -0.0049999971
0.080960676 0.025069784 -0.0049999971
0.083061457 0.025085341 -0.0049999976
0.085004553 0.024975277 -0.0049999971
0.086976528 0.024985675 -0.0049999971
0.088778473 0.02486163 -0.0047789877
-0.088785209 0.027037233 -0.004684201
-0.086916067 0.027098069 -0.0049999966
-0.083180003 0.026039317 -0.0049999971
-0.083074145 0.026956961 -0.0049999971
-0.080898166 0.026877711 -0.0049999971
-0.078180037 0.026345657 -0.0049999966
-0.07698568 0.027052481 -0.0049999971
-0.075108714 0.026953302 -0.0049999966
-0.072417766 0.026724992 -0.0049999971
-0.070943423 0.027011598 -0.0049999971
-0.069041446 0.026904229 -0.0049999976
-0.066994414 0.026826242 -0.0049999971
-0.064966321 0.027070777 -0.0049999971
-0.063103691 0.026945435 -0.0049999971
-0.061043054 0.027064547 -0.0049999966
-0.058884926 0.027032543 -0.0049999971
-0.057075128 0.026949152 -0.0049999971
-0.054154571 0.026178267 -0.0049999971
-0.052638952 0.026486566 -0.0049999971
-0.051050473 0.026949793 -0.0049999966
-0.048956588 0.02700704 -0.0049999971
-0.047020447 0.02711108 -0.0049999966
-0.044111729 0.026610967 -0.0049999971
-0.041997232 0.02686218 -0.0049999966
-0.041088153 0.0270338 -0.0049999976
-0.039053503 0.027074112 -0.0049999971
-0.036902923 0.026978794 -0.0049999971
-0.03496876 0.026845956 -0.0049999971
-0.032871876 0.02699366 -0.0049999971
-0.031000841 0.027106706 -0.0049999971
-0.028933972 0.027010512 -0.0049999971
-0.027052343 0.026915738 -0.0049999971
-0.025154043 0.026776133 -0.0049999971
-0.022989703 0.026982458 -0.0049999971
-0.021100631 0.027008522 -0.0049999966
-0.019037062 0.02705067 -0.0049999971
-0.017028756 0.027063457 -0.0049999966
-0.014881306 0.026666202 -0.0049999966
-0.013037833 0.026949126 -0.0049999971
-0.011017581 0.026894599 -0.0049999971
-0.0080126133 0.026645167 -0.0049999971
-0.0069771931 0.027025908 -0.0049999971
-0.0047533433 0.026798401 -0.0049999971
-0.0037895117 0.026591448 -0.0049999971
-0.0010444884 0.026972249 -0.0049999971
0.0010915842 0.027043398 -0.0049999971
0.0029419521 0.026935058 -0.0049999971
0.0049955118 0.027069725 -0.0049999966
0.0069958409 0.027000492 -0.0049999971
0.0089987386 0.026998959 -0.0049999966
0.010870902 0.026970038 -0.0049999971
0.0130061 0.026959743 -0.0049999971
0.015046062 0.027114989 -0.0049999971
0.016939647 0.027018052 -0.0049999971
0.01902853 0.026975157 -0.0049999966
0.020974623 0.027063297 -0.0049999976
0.02305554 0.026970236 -0.0049999971
0.024921408 0.027023742 -0.0049999976
0.02712 0.027020914 -0.0049999971
0.029035218 0.027023053 -0.0049999971
0.031007538 0.026996298 -0.0049999971
0.032820977 0.026473559 -0.0049999971
0.035011202 0.026992094 -0.0049999971
0.036933739 0.027156508 -0.0049999966
0.039009929 0.026980769 -0.0049999971
0.04098234 0.026875133 -0.0049999971
0.043029059 0.027074942 -0.0049999966
0.045045279 0.026886631 -0.0049999966
0.047021732 0.026859045 -0.0049999971
0.048909381 0.027115891 -0.0049999971
0.051039483 0.027021293 -0.0049999971
0.053083841 0.026921019 -0.0049999976
0.055019557 0.026966866 -0.0049999971
0.057026844 0.027049359 -0.0049999971
0.059081014 0.027088372 -0.0049999971
0.061032671 0.026932556 -0.0049999966
0.062911414 0.026985489 -0.0049999966
0.063569956 0.025875641 -0.0049999971
0.066891894 0.026919154 -0.0049999971
0.068990484 0.026933474 -0.0049999966
0.069639392 0.026503704 -0.0049999966
0.073047683 0.027046544 -0.004999998
0.075009063 0.027142167 -0.0049999971
0.076988615 0.026991557 -0.0049999966
0.079039186 0.027047921 -0.0049999971
0.080816142 0.027065186 -0.0049999966
0.083027624 0.027056389 -0.0049999971
0.084971219 0.027099727 -0.0049999971
0.086880058 0.027012261 -0.0049999971
0.08874169 0.027096126 -0.0047419406
-0.088741958 0.029083891 -0.0047520543
-0.08698456 0.029020706 -0.0049999971
-0.084962003 0.028932754 -0.0049999966
-0.083030708 0.029041663 -0.0049999971
-0.081006028 0.029077737 -0.0049999971
-0.078876145 0.02888388 -0.0049999971
-0.077004313 0.028429782 -0.0049999971
-0.075001739 0.028988577 -0.0049999971
-0.073048435 0.029043192 -0.0049999971
-0.070978403 0.029090425 -0.0049999971
-0.06903404 0.028943278 -0.0049999971
-0.06695509 0.028865378 -0.0049999971
-0.064965963 0.029015021 -0.0049999971
-0.062322877 0.028233929 -0.0049999971
-0.0609858 0.028950416 -0.0049999971
-0.059063941 0.028974848 -0.0049999971
-0.057064671 0.028996365 -0.0049999971
-0.053416993 0.028873608 -0.0049999976
-0.053095039 0.028786387 -0.0049999971
-0.050988138 0.029141111 -0.0049999966
-0.048252475 0.028817916 -0.0049999966
-0.045947704 0.028842602 -0.0049999971
-0.044944849 0.02896673 -0.0049999971
-0.043023784 0.028958835 -0.0049999966
-0.041028962 0.029063825 -0.0049999971
-0.038957942 0.028952785 -0.0049999971
-0.037034404 0.02907001 -0.0049999971
-0.035027277 0.028986791 -0.0049999971
-0.032954499 0.028951367 -0.0049999971
-0.030907467 0.029018784 -0.0049999971
-0.029396886 0.02812185 -0.0049999971
-0.025707707 0.028738186 -0.0049999971
-0.024994086 0.029036226 -0.0049999971
-0.023037547 0.028807526 -0.0049999966
-0.020966511 0.028946085 -0.0049999976
-0.01900031 0.0289934 -0.0049999971
-0.017147012 0.028933614 -0.0049999966
-0.015026676 0.029066142 -0.0049999971
-0.013001995 0.028971452 -0.0049999971
-0.011050304 0.029127285 -0.0049999971
-0.0090850769 0.029094195 -0.0049999971
-0.0070484574 0.028961644 -0.0049999966
-0.0050089289 0.028975604 -0.0049999971
-0.0034282617 0.028097555 -0.0049986597
-0.00099134736 0.028917417 -0.0049999971
0.00082544232 0.029060423 -0.0049999971
0.0030744167 0.028979238 -0.0049999971
0.0049939095 0.029014539 -0.0049999971
0.0065248143 0.028241422 -0.0049999966
0.009023048 0.02908024 -0.0049999971
0.011025838 0.029027075 -0.0049999971
0.012931341 0.028985383 -0.0049999971
0.015042262 0.029044954 -0.0049999971
0.016969884 0.028937627 -0.0049999966
0.018941786 0.028857188 -0.0049999966
0.021060115 0.028950457 -0.0049999971
0.022947991 0.029060328 -0.0049999971
0.024904175 0.029104143 -0.0049999966
0.026965702 0.028947232 -0.0049999966
0.025924999 0.027356712 -0.0049968325
0.030909408 0.028908644 -0.0049999971
0.032977674 0.029062647 -0.0049999971
0.034476604 0.028639207 -0.0049999971
0.037253972 0.028661611 -0.0049999966
0.03896201 0.029095354 -0.0049999971
0.041045751 0.028972616 -0.0049999971
0.043022174 0.028965844 -0.0049999971
0.043561209 0.028007416 -0.0049999971
0.047386251 0.028547386 -0.0049999971
0.048999928 0.029053228 -0.0049999971
0.049906433 0.028892454 -0.0049999971
0.05295198 0.029012607 -0.0049999971
0.054955002 0.028964637 -0.0049999971
0.057040244 0.029157698 -0.0049999971
0.058963805 0.029001433 -0.0049999966
0.059898388 0.028451456 -0.0049999971
0.061842371 0.028321292 -0.0049999966
0.064999349 0.029092463 -0.0049999971
0.066342704 0.028853871 -0.0049999971
0.068477564 0.028525339 -0.0049999966
0.071209267 0.02902003 -0.0049999966
0.073001795 0.028990669 -0.0049999971
0.075027041 0.028897205 -0.0049999971
0.077060185 0.029045014 -0.0049999971
0.079048716 0.028966701 -0.0049999966
0.081014864 0.028970774 -0.0049999971
0.082299858 0.028687719 -0.0049999971
0.084966853 0.029032681 -0.0049999971
0.085469268 0.028260631 -0.0049999971
0.088790141 0.028974865 -0.004725277
-0.088756211 0.030927701 -0.0047175763
-0.086955801 0.030956242 -0.0049999971
-0.084952101 0.03109294 -0.0049999971
-0.083007857 0.031115372 -0.0049999966
-0.080982268 0.031155296 -0.0049999971
-0.07774698 0.030309515 -0.0049999971
-0.076959647 0.030906864 -0.0049999966
-0.07481347 0.030482508 -0.0049999971
-0.071279593 0.03058859 -0.0049999971
-0.071031317 0.030981325 -0.0049999966
-0.069068328 0.031136237 -0.0049999971
-0.065462776 0.030379632 -0.0049999971
-0.064954147 0.031021729 -0.0049999971
-0.063115537 0.030935142 -0.0049999971
-0.061048172 0.031085953 -0.0049999971
-0.057549492 0.030351674 -0.0049999971
-0.056959324 0.030305861 -0.0049999971
-0.05498524 0.031039063 -0.0049999971
-0.053071931 0.030974457 -0.0049999971
-0.05100181 0.030932214 -0.0049999971
-0.048948005 0.031148147 -0.0049999966
-0.047168572 0.030523971 -0.0049999971
-0.044991091 0.031014383 -0.0049999971
-0.043053154 0.031102339 -0.0049999971
-0.0409532 0.031027162 -0.0049999971
-0.03908154 0.031021109 -0.0049999966
-0.037062734 0.030962721 -0.0049999971
-0.035026968 0.030985406 -0.0049999966
-0.03288725 0.030962348 -0.0049999971
-0.030022074 0.030476959 -0.0049999971
-0.027675251 0.031039942 -0.0049999971
-0.027028207 0.030979959 -0.0049999971
-0.024974192 0.03092449 -0.0049999971
-0.02321925 0.030238604 -0.0049999966
-0.020941885 0.030925928 -0.0049999976
-0.019042101 0.030881504 -0.0049999971
-0.017048517 0.031008936 -0.0049999971
-0.01501762 0.030946782 -0.0049999966
-0.012905875 0.031074228 -0.0049999971
-0.011608472 0.030324694 -0.0049999971
-0.0090689966 0.031095773 -0.0049999971
-0.007009408 0.030961996 -0.0049999971
-0.0049527483 0.031010639 -0.0049999971
-0.0037638138 0.030760206 -0.0049999971
-0.0009412957 0.031096006 -0.0049999976
0.0010313704 0.030635923 -0.0049999966
0.0030672492 0.03099685 -0.0049999971
0.0050118556 0.030996975 -0.0049999971
0.0068988157 0.031025082 -0.0049999971
0.0090062544 0.030989267 -0.0049999966
0.011099237 0.031010805 -0.0049999971
0.013107231 0.031075211 -0.0049999966
0.0149674 0.031088732 -0.0049999966
0.017095584 0.031004591 -0.0049999971
0.019108959 0.031082505 -0.0049999971
0.020921839 0.030909343 -0.0049999971
0.022959439 0.031006698 -0.0049999971
0.024911908 0.03094976 -0.0049999966
0.026886728 0.030974211 -0.0049999971
0.029099921 0.031015877 -0.0049999966
0.030948795 0.031068534 -0.0049999966
0.033016145 0.030986683 -0.0049999971
0.034991402 0.030970227 -0.0049999971
0.03697079 0.030975651 -0.0049999971
0.03820518 0.030367872 -0.0049999971
0.041005697 0.031049339 -0.0049999971
0.043019094 0.030954709 -0.0049999971
0.045053899 0.030987037 -0.0049999966
0.047043186 0.031011224 -0.0049999971
0.049021021 0.030439597 -0.0049999971
0.050975323 0.03108597 -0.0049999971
0.052984938 0.031043062 -0.0049999971
0.053759862 0.030271171 -0.0049999971
0.055542011 0.03014566 -0.0049999966
0.057831664 0.029848479 -0.0049999971
0.06095162 0.030995714 -0.0049999971
0.062975809 0.031092521 -0.0049999971
0.064987436 0.030977221 -0.0049999966
0.066984482 0.030872857 -0.0049999966
0.067534372 0.030472159 -0.0049999971
0.070961922 0.031041037 -0.0049999966
0.073087387 0.03106508 -0.0049999966
0.074929111 0.030924676 -0.0049999971
0.076981902 0.031030266 -0.0049999966
0.078201346 0.030718481 -0.0049999966
0.080963306 0.030990604 -0.0049999971
0.082858391 0.031026188 -0.0049999971
0.08473552 0.030804899 -0.0049999971
0.086983547 0.031103265 -0.0049999971
0.088729493 0.031032067 -0.0047371387
-0.088750154 0.033059366 -0.0047484804
-0.085352667 0.032435011 -0.0049999971
-0.083826087 0.032635298 -0.0049999976
-0.082891896 0.033028111 -0.0049999971
-0.081089951 0.033020064 -0.0049999966
-0.07900922 0.033061352 -0.0049999971
-0.07602632 0.03254845 -0.0049999966
-0.075009219 0.033013236 -0.0049999971
-0.073008679 0.033084575 -0.0049999971
-0.07096687 0.033058647 -0.0049999971
