# .PCD v0.7 - Point Cloud Data file format
VERSION 0.7
FIELDS x y z
SIZE 4 4 4
TYPE F F F
COUNT 1 1 1
WIDTH 1287
HEIGHT 1
VIEWPOINT 0 0 0 1 0 0 0
POINTS 1287
DATA ascii
0.027305633 -0.019125229 0.0091805905
0.028291149 -0.018414946 0.0087806545
-0.029091453 -0.016948311 0.008933668
0.028872026 -0.017028326 0.0089868661
-0.02996427 -0.014900711 0.0087095648
-0.029798424 -0.015662624 0.0093364567
0.029570954 -0.015798969 0.0089894757
0.030370507 -0.014775738 0.0089271078
-0.030910011 -0.012877406 0.0090336539
0.030966982 -0.012907361 0.0088616861
-0.032178342 -0.010468215 0.0087262131
-0.031387769 -0.011348926 0.0087302541
0.031469468 -0.011137239 0.0089354152
0.032174353 -0.010524901 0.008647956
-0.032160077 -0.0088661443 0.0087883854
0.032498028 -0.0089367274 0.0090395892
-0.032845009 -0.0071038669 0.0089075128
0.032994017 -0.0070188786 0.0089647099
-0.033361297 -0.0049956217 0.0090162735
0.033365879 -0.0049206074 0.0090225032
-0.033544414 -0.0029693656 0.0090141157
0.033231787 -0.0028844567 0.0087704044
-0.033691984 -0.0010918383 0.0090447189
0.033706643 -0.00096101296 0.0090270704
-0.033702586 0.00097560789 0.0090450076
0.033477563 0.0010475066 0.0089537995
-0.033547305 0.0029716005 0.0089954259
0.033447895 0.0030323786 0.0088637155
-0.033348348 0.0050075757 0.009043402
0.033137668 0.0049937833 0.0087747276
-0.033015426 0.0069364863 0.008967408
0.032761261 0.0070439 0.0088786567
-0.032517657 0.0089146579 0.0089167543
0.031975888 0.0099182688 0.0099864332
0.032506496 0.0090093436 0.0089429831
-0.031530984 0.010363715 0.0085392557
-0.031734768 0.011279855 0.0092463512
0.031564903 0.01144216 0.0089843236
0.032083821 0.010567214 0.0083913188
-0.031097392 0.013003549 0.0089906296
0.030786829 0.013086133 0.0089238239
-0.030087916 0.014787742 0.0088805044
-0.029791154 0.015643748 0.009402479
0.029787593 0.015701113 0.00931146
0.030149722 0.014687383 0.0086805252
-0.029107288 0.016982105 0.0089924093
0.029056555 0.017053694 0.0090123611
-0.027659576 0.018057551 0.0081458222
-0.027289199 0.019167902 0.0090787411
0.027591322 0.019336322 0.0090947365
0.027776962 0.018114051 0.0087023266
-0.02608547 0.020376239 0.0082017453
-0.025729265 0.021681083 0.0092583811
0.025406068 0.021627028 0.0087790051
0.026167631 0.020239662 0.008603937
-0.024808733 0.022851184 0.0089629423
-0.023767114 0.023780229 0.0093450341
0.023749072 0.023785291 0.0093792444
0.024731614 0.022471828 0.0087266415
-0.022685913 0.024598733 0.0087639159
-0.021679699 0.025696984 0.0093801571
0.021685585 0.025740217 0.0092645492
0.022815472 0.024669359 0.0087773819
-0.02059255 0.026458073 0.008898044
-0.019290829 0.027155783 0.0088147046
0.019355398 0.027560303 0.0091302451
0.020634256 0.026398906 0.0088713514
-0.01841576 0.028275019 0.0088425856
-0.016726648 0.028872145 0.0086362688
-0.015622821 0.029786853 0.0091949301
0.015618399 0.029778142 0.0092355059
0.016994836 0.028902248 0.008900065
0.018209955 0.027915787 0.0085491948
-0.014702767 0.030356083 0.0089315688
-0.012943204 0.03108165 0.0088964235
-0.011228513 0.031725448 0.0092220549
-0.0099340947 0.031992532 0.0099215945
0.0099097127 0.031991992 0.0099566299
0.011278423 0.03139814 0.0089122728
0.013006561 0.03113527 0.0089942841
0.014687485 0.030374186 0.0088929869
-0.010145697 0.032091778 0.0083211977
-0.0089976471 0.032286026 0.0088346759
-0.0069587058 0.032970138 0.008969754
-0.0049958378 0.033353664 0.0089558465
-0.0030733631 0.033577908 0.0089204628
-0.00095982064 0.033640832 0.0089654289
0.00099443016 0.033714615 0.0090158563
0.002921731 0.033334844 0.0089687239
0.0050277784 0.033344105 0.0089956596
0.0070092967 0.03294592 0.0090164943
0.008883859 0.032322355 0.0087877074
0.010487851 0.032075595 0.0082374057
-0.008618963 -0.032173932 0.010561257
-0.006913072 -0.032345932 0.010812326
-0.0049648057 -0.032740995 0.010941156
-0.003004526 -0.032960277 0.010992048
-0.00088354351 -0.032916646 0.010995653
0.0009620277 -0.032782208 0.010837115
0.0030310892 -0.03295441 0.011002301
0.0050191325 -0.032718413 0.011050864
0.0070459642 -0.032298222 0.010813332
0.0086740144 -0.032173678 0.01051895
-0.014661483 -0.028303551 0.0098764673
-0.01274454 -0.030445084 0.01091854
-0.011008264 -0.030977108 0.01095247
-0.0093360469 -0.031587657 0.011143269
-0.0076979385 -0.031913925 0.011813742
0.0076890504 -0.031936932 0.011762988
0.0091346335 -0.03174023 0.011342726
0.010814901 -0.030815916 0.010942676
0.01283699 -0.0304763 0.010809012
0.014231731 -0.030122019 0.010340325
-0.018125568 -0.028082792 0.010180332
-0.016896959 -0.028551105 0.010926497
-0.015047649 -0.029467339 0.011032669
-0.013741505 -0.029885478 0.011696069
0.013780629 -0.029832132 0.011793846
0.01499757 -0.029388357 0.010795106
0.016813127 -0.028583534 0.010889878
0.018103618 -0.028091118 0.010201782
-0.020367604 -0.026233263 0.010656715
-0.019073015 -0.027038915 0.011043468
-0.017715925 -0.027763383 0.011613927
0.017289409 -0.02649622 0.011464251
0.018930016 -0.026949078 0.010909982
0.02036505 -0.026275057 0.010559998
-0.022464365 -0.02437643 0.01084306
-0.021004219 -0.025378551 0.011003091
0.021206511 -0.025382759 0.011030048
0.022507526 -0.024295697 0.010834748
-0.024452878 -0.022508368 0.010788329
-0.023333829 -0.023417542 0.011172049
0.023396136 -0.023332253 0.011052258
0.024429221 -0.02248968 0.010874161
-0.0262706 -0.020303313 0.010652072
-0.025372801 -0.021196811 0.011124916
0.025291828 -0.021083165 0.011073756
0.026228815 -0.020340968 0.010683153
-0.028047992 -0.018088209 0.010147478
-0.02709735 -0.019029358 0.011011809
-0.025995983 -0.019918758 0.011989079
0.025965096 -0.01999506 0.011925925
0.027102707 -0.018885029 0.010925667
0.02806301 -0.0180769 0.010122981
-0.028523441 -0.016882909 0.010893983
-0.027825672 -0.017726867 0.011494246
0.027831141 -0.017702252 0.011517765
0.028527938 -0.016846545 0.01092989
-0.03014685 -0.014318648 0.010259995
-0.029321594 -0.01495452 0.010932172
0.029434493 -0.01508016 0.011099073
0.03011567 -0.01438017 0.010275104
-0.030341553 -0.012740592 0.01077472
-0.029903669 -0.013731686 0.011653261
0.029875763 -0.013714423 0.01175411
0.030507475 -0.012813511 0.010778927
-0.03107922 -0.011016194 0.010823495
0.030976547 -0.010928354 0.010803333
-0.032113582 -0.0086378651 0.010524342
-0.031508192 -0.0091222906 0.011082426
0.031717267 -0.0092343735 0.011241209
0.032166518 -0.0085392958 0.010438933
-0.032302856 -0.0069101462 0.010819619
-0.031911641 -0.0076516881 0.011854902
0.03192234 -0.007669569 0.011811333
0.031815261 -0.0071002841 0.010676872
-0.032686807 -0.0050448752 0.011048442
0.032716502 -0.0050168913 0.010979086
-0.032473549 -0.0028946332 0.010879149
0.032698154 -0.0029495026 0.010848368
-0.03292286 -0.00097208458 0.01088845
0.033077642 -0.00099805964 0.010980805
-0.032840211 0.0010980507 0.010953372
0.033052117 0.0010628166 0.011047922
-0.032901667 0.0030321823 0.011065165
0.032936849 0.0029863336 0.010970195
-0.032586325 0.0049834312 0.010839408
0.032539096 0.0050937645 0.01089696
-0.032021854 0.0071195904 0.010781566
-0.031930044 0.0077241776 0.011751981
0.031921089 0.0078128278 0.011713437
0.032339033 0.0067577073 0.010834902
-0.032171544 0.0086487606 0.010342598
-0.031436041 0.0089573842 0.011268019
0.031514648 0.0091227051 0.0110366
0.03216435 0.0085202428 0.010266941
-0.031067813 0.010887885 0.010940835
0.031237826 0.0109839 0.010977615
-0.030441187 0.012800326 0.010792721
-0.029881537 0.013739672 0.011705296
0.02990224 0.013787645 0.011590391
0.030097088 0.012708331 0.010736797
-0.030128278 0.014284926 0.010352113
-0.02916427 0.015078133 0.010885855
0.029429946 0.01511033 0.011071232
0.030108796 0.014290103 0.010402977
-0.028578667 0.016791997 0.01089095
-0.027815901 0.0177409 0.011503783
0.027822198 0.017738372 0.011486505
0.028311614 0.016409662 0.010584879
-0.028021481 0.018091954 0.010221598
-0.027080135 0.019043759 0.011023683
-0.025975084 0.019988652 0.011915777
0.026956754 0.018855296 0.010852349
0.0280437 0.018085888 0.010165051
-0.026267178 0.020318607 0.010629433
-0.025055077 0.021102617 0.010873349
0.025404494 0.021151152 0.01095827
0.026254294 0.020335596 0.010628383
-0.024013303 0.022339918 0.010703563
-0.023323989 0.023427246 0.011181504
0.023165844 0.023206467 0.011148394
0.024474327 0.02248531 0.010784335
-0.022426719 0.024435719 0.01078296
-0.021277772 0.025199017 0.010880169
0.021228017 0.025235731 0.011046235
0.022433203 0.024399187 0.01085622
-0.020196587 0.026266133 0.010253604
-0.018895881 0.026768168 0.010885398
-0.017682277 0.027795047 0.011598146
0.017684728 0.027816104 0.011552922
0.018984877 0.027102351 0.011049396
0.020348923 0.026247362 0.010656471
-0.018125935 0.02804989 0.010290792
-0.016679605 0.02829456 0.010736482
-0.01500924 0.029236866 0.010996109
-0.013812488 0.02989448 0.011572513
0.013732022 0.029883632 0.011713716
0.015078832 0.029452041 0.011031155
0.016885301 0.028570019 0.010892455
0.018085917 0.028058752 0.010346806
-0.01424975 0.030123645 0.010310295
-0.012932774 0.030507755 0.010903808
-0.011063537 0.031016516 0.010900958
-0.0091780033 0.031723071 0.01136274
-0.0076143038 0.031924948 0.011835289
0.0076248427 0.031933885 0.01180751
0.0092500048 0.031150179 0.010911917
0.01096985 0.031240113 0.010984565
0.012946361 0.030510249 0.010815448
0.014203099 0.030133635 0.010347999
-0.0087152543 0.032182239 0.010461635
-0.0069678421 0.032388255 0.010918039
-0.0048194891 0.032635931 0.010936551
-0.0029407628 0.032965023 0.010992013
-0.0010351985 0.03311073 0.010950824
0.0011584993 0.03289685 0.010911994
0.0030150209 0.032740187 0.01097077
0.0050987247 0.032571856 0.010938183
0.0066543589 0.032184616 0.010662713
0.0086478433 0.032164339 0.010566213
-0.0062581608 -0.032098297 0.012198061
-0.0044508982 -0.031783506 0.01230066
-0.0029499948 -0.032338887 0.012791268
-0.00091404264 -0.032039735 0.012549405
0.0010927861 -0.03228363 0.01282689
0.0029756303 -0.032323211 0.012827594
0.00485363 -0.032230038 0.012608996
0.0062883534 -0.032100961 0.012174144
-0.012481813 -0.030166224 0.01236091
-0.010925198 -0.030399101 0.012779787
-0.0089642201 -0.03111136 0.012987367
-0.0070370268 -0.031276982 0.012885426
-0.0051380782 -0.031797126 0.013463372
-0.003107656 -0.031897411 0.013791505
-0.0016518872 -0.031968936 0.013921
0.0014918903 -0.031981748 0.013924715
0.0033056648 -0.031883366 0.013783067
0.0051515023 -0.031378206 0.013223478
0.0069285561 -0.031318784 0.012848423
0.0088681402 -0.030964889 0.013036558
0.011068889 -0.03018795 0.012679188
0.012356772 -0.030186694 0.012429917
-0.015422838 -0.027787795 0.012261411
-0.014781836 -0.028327662 0.012551741
-0.013182128 -0.029561769 0.013147376
-0.011748795 -0.029881474 0.013704134
0.011726359 -0.029886717 0.013709696
0.013022063 -0.029320978 0.013001091
0.014958017 -0.028615404 0.012915291
0.01634104 -0.028200595 0.012444319
-0.018637642 -0.026515052 0.012827567
-0.017185578 -0.027375655 0.013082454
-0.015809141 -0.027877456 0.013758628
0.015795097 -0.027887931 0.013753431
0.017070023 -0.027393283 0.012929995
0.018496159 -0.026210789 0.012834092
-0.022053733 -0.024169466 0.012210445
-0.020556744 -0.024791986 0.012844435
-0.01956212 -0.025610443 0.013348904
0.019510314 -0.025670225 0.013301549
0.020918379 -0.024835881 0.012865108
0.022123432 -0.024100665 0.012223306
-0.024121927 -0.022112172 0.012134538
-0.022923946 -0.022911193 0.012877682
-0.020857461 -0.022814641 0.013096508
0.021711564 -0.023709461 0.013599156
0.022907587 -0.022903701 0.012919782
0.024123972 -0.022088319 0.012172527
-0.024615277 -0.020766543 0.012879818
-0.0231969 -0.021889089 0.012964754
0.023727529 -0.02173681 0.013494197
0.024646498 -0.020859241 0.012882819
-0.026452363 -0.018625811 0.012616466
-0.025648134 -0.019531693 0.013333737
0.025642866 -0.019557383 0.013310899
0.026549509 -0.018668467 0.01285166
-0.028206723 -0.016353972 0.012424368
-0.027226089 -0.01708518 0.013062037
0.027231624 -0.016925044 0.013095884
0.02795263 -0.015640171 0.01210023
-0.028586803 -0.014831622 0.012814361
-0.027879942 -0.015781946 0.013774025
0.027888104 -0.015788572 0.013749942
0.028706312 -0.014982916 0.012854947
-0.028538825 -0.01182289 0.01171251
-0.029411942 -0.013082844 0.012916517
0.029552747 -0.013157821 0.013192425
0.030162046 -0.012447558 0.012408059
-0.030448586 -0.010853421 0.012872222
-0.029854085 -0.011717111 0.013791182
0.029887462 -0.011690328 0.013742468
0.030248923 -0.010830278 0.012920419
-0.031056149 -0.0091309892 0.013002433
0.030820098 -0.0089718644 0.012706706
-0.032060135 -0.0062831906 0.012156968
-0.031357206 -0.0069813915 0.012930471
0.031015808 -0.0068807383 0.012878343
0.032064475 -0.0063861725 0.012098639
-0.032197613 -0.0047712214 0.012483807
-0.031443674 -0.0050364733 0.013189152
0.031792168 -0.005130176 0.013382309
0.031456284 -0.0050924048 0.012195311
-0.032299813 -0.0029511324 0.012892145
-0.031918198 -0.0033481661 0.013812873
0.031924278 -0.0033234193 0.013817945
0.032320432 -0.0029672242 0.012825535
-0.032189708 -0.0009957616 0.012744797
-0.031977318 -0.0012001517 0.013924376
0.031971358 -0.0009885116 0.013940541
0.031904094 -0.0010448084 0.012723466
-0.032199595 0.0011407658 0.012889221
-0.031973012 0.00098760147 0.013936239
0.031978726 0.0011904016 0.013921106
0.032114644 0.0010132515 0.012895877
-0.031969275 0.0030744569 0.012662721
-0.031926803 0.0034128239 0.013790082
0.031611327 0.0041213678 0.01348432
0.032223854 0.0028958104 0.012726498
-0.031701896 0.0049396963 0.012368813
-0.031778257 0.005101522 0.013430506
0.031769764 0.0051530311 0.01343018
0.032177303 0.0049574263 0.012452486
-0.032082301 0.0062663057 0.012106328
-0.031580321 0.0070289937 0.01306699
0.031358417 0.0069411453 0.013073204
0.028890582 0.0075164232 0.0093917996
-0.031110777 0.0089617316 0.012901474
0.031009341 0.0088401707 0.012935579
-0.030259667 0.010795058 0.012805136
-0.02987081 0.011661847 0.013796948
0.029892612 0.01167187 0.013745048
0.03028219 0.010909734 0.012754709
-0.030142289 0.01250054 0.012408985
-0.02939721 0.013064615 0.01295889
0.029284634 0.013154346 0.012853501
0.030155141 0.012495711 0.012375293
-0.028756958 0.01492234 0.01292537
-0.027899256 0.015787868 0.013728106
0.027850082 0.015876979 0.013726748
0.028737558 0.014977284 0.012900697
-0.027056159 0.015588979 0.01151845
-0.027028186 0.01685266 0.01295603
0.027209954 0.016767999 0.013032569
0.027605573 0.016603602 0.01239041
-0.026316082 0.018755872 0.012712123
-0.025258571 0.0194142 0.013235757
0.025225179 0.01933039 0.012944393
0.02635953 0.01850138 0.012727699
-0.024709092 0.020815263 0.01275964
-0.023747096 0.021672269 0.013571952
0.023728933 0.021730019 0.013503534
0.024563538 0.020944681 0.012686439
-0.024097299 0.022111705 0.012179332
-0.022726409 0.022519274 0.012832184
-0.021758396 0.023692233 0.01355393
0.021704353 0.023746585 0.013551188
0.022804869 0.022777183 0.012856316
0.024077641 0.022101462 0.012232321
-0.022084406 0.024157817 0.012175926
-0.020797258 0.024639066 0.012785011
-0.019466393 0.025654942 0.01339292
0.019567162 0.025658967 0.013244188
0.020935602 0.024597945 0.01282531
0.022124358 0.024139149 0.012146655
-0.018455975 0.026344681 0.012725039
-0.017114414 0.027396314 0.01313196
-0.015792053 0.027894307 0.013743693
0.015781615 0.027916577 0.013709432
0.017129432 0.027386921 0.013130412
0.018670939 0.026449481 0.012720058
-0.016370708 0.028154986 0.012504547
-0.014928631 0.028760105 0.012950005
-0.01319445 0.029598972 0.013057941
-0.011669186 0.029894006 0.013740965
0.011660598 0.029893881 0.013748553
0.013119388 0.029580293 0.013175412
0.0148286 0.028539034 0.01297124
0.016398711 0.028201213 0.012374036
-0.012438204 0.030163098 0.012416453
-0.010969269 0.030116744 0.012609384
-0.0090517569 0.030804496 0.01280789
-0.0070725456 0.031556226 0.013041656
-0.0052192407 0.031781837 0.013464546
-0.0031179986 0.031896513 0.013791413
-0.0016553503 0.031966452 0.013925614
0.0016111197 0.031971671 0.013923077
0.0027677917 0.030897371 0.013527998
0.0051143556 0.031792503 0.013479866
0.0070406063 0.031541359 0.01309438
0.0088985506 0.030980723 0.012874658
0.010906162 0.02994314 0.01246675
0.012469493 0.030162351 0.012385439
-0.006303627 0.03206747 0.012246665
-0.0045809508 0.031987455 0.012399171
-0.0030017695 0.032342367 0.012776808
-0.00097121805 0.03227631 0.012865517
0.0011180663 0.032330833 0.012902343
0.0028794322 0.032352332 0.012769169
0.0045613456 0.03208784 0.012391496
0.006280975 0.03209478 0.012193425
-0.00032305083 -0.032029137 0.014046239
0.00032379216 -0.032023467 0.014054706
-0.010469226 -0.029574508 0.012679379
-0.0089499541 -0.030106297 0.014471993
-0.006885305 -0.030340455 0.014874259
-0.0049999813 -0.030934945 0.014820051
-0.002980239 -0.031334657 0.01500917
-0.00083777448 -0.031218104 0.01485354
0.0010405288 -0.031509899 0.014969707
0.0028825228 -0.031177783 0.014792909
0.0050174883 -0.031001732 0.014775632
0.0071163005 -0.030283861 0.014815819
0.0088172713 -0.030396014 0.014792483
0.010288609 -0.030149966 0.01428705
-0.014468086 -0.028306693 0.014340946
-0.0128407 -0.028547233 0.014872444
-0.011182197 -0.029165694 0.014883006
-0.00941284 -0.029810127 0.015605152
0.0093736304 -0.02979262 0.015655752
0.010803169 -0.029312575 0.014989448
0.01286008 -0.02858229 0.014815181
0.014497819 -0.028265294 0.014442163
-0.018167762 -0.02609987 0.01429971
-0.016827412 -0.026687013 0.01477707
-0.015093089 -0.027397631 0.014961634
-0.013806445 -0.027850784 0.015805515
0.013758076 -0.027916186 0.015731193
0.014960746 -0.027093789 0.014869396
0.01690351 -0.026630653 0.014694555
0.018168509 -0.026128173 0.014242446
-0.020379677 -0.024312951 0.014522575
-0.018881116 -0.02513591 0.014953222
-0.017301157 -0.024675827 0.015421633
0.017703604 -0.025299974 0.014966355
0.018884046 -0.024877595 0.015042317
0.020439299 -0.024271404 0.01451281
-0.022436727 -0.022414733 0.014496723
-0.02115027 -0.023224495 0.015113475
-0.019851042 -0.02388625 0.015850505
0.019845638 -0.023910753 0.015818257
0.021093188 -0.023035828 0.014992107
0.022370059 -0.022416029 0.01458957
-0.023745252 -0.020121487 0.014364583
-0.023232915 -0.021180015 0.015157732
-0.021921426 -0.021965712 0.015885219
0.021956181 -0.021898597 0.015935061
0.023159213 -0.021252733 0.015162468
0.024344474 -0.020386551 0.014608736
-0.026129466 -0.018145902 0.014294444
-0.024876833 -0.019076275 0.014854996
-0.023960879 -0.019859735 0.01582673
0.023852933 -0.019911405 0.015925892
0.025072163 -0.019006021 0.015067929
0.026104772 -0.018224504 0.014240339
-0.026500886 -0.016719274 0.014877086
-0.025805388 -0.01762211 0.015515043
0.025730269 -0.017622674 0.015643528
0.02669562 -0.016870109 0.014844825
-0.028287824 -0.014441981 0.014452139
-0.027467225 -0.015215131 0.015229088
0.027224598 -0.015172018 0.014818508
0.028236171 -0.014533692 0.014454503
-0.028627381 -0.012728214 0.014764532
-0.027853217 -0.013772548 0.015840027
0.027869044 -0.013809671 0.015781214
0.028325977 -0.012528676 0.014718018
-0.030130673 -0.010298368 0.014244185
-0.029187214 -0.011018392 0.01488369
0.029190971 -0.011036733 0.015019206
0.030112682 -0.010367275 0.014231278
-0.030018404 -0.0088263387 0.014466413
-0.029791474 -0.0093317088 0.01554137
0.029090147 -0.0092181917 0.015254403
0.029772514 -0.0088264951 0.014572729
-0.030657355 -0.0069615613 0.014766548
-0.029995676 -0.0078367423 0.015931617
0.029967953 -0.0079721604 0.015914684
0.030652566 -0.0071034017 0.014946197
-0.031056384 -0.0049542845 0.01500762
0.031022269 -0.0049236747 0.014900997
-0.031361379 -0.0029757281 0.015020587
0.031148557 -0.0032660707 0.014753148
-0.031287104 -0.00078197109 0.01477603
0.031257667 -0.0009528427 0.014939173
-0.03105513 0.0010275071 0.014900124
0.031343691 0.00088964135 0.014859375
-0.031261243 0.0030823541 0.014944685
0.030889601 0.0030349162 0.014651764
-0.030949175 0.0051299091 0.014928603
0.031025205 0.0049493224 0.014863803
-0.030655334 0.0069163344 0.014881832
-0.029969949 0.0078887288 0.015952487
0.02997792 0.0077766683 0.01599366
0.030706124 0.0069849617 0.014969895
-0.030395601 0.0088254372 0.014689075
-0.029779971 0.009298075 0.015582007
0.029789751 0.0092749186 0.015576415
0.030344401 0.0087712742 0.014574935
-0.027953841 0.0086221099 0.013714207
-0.029448479 0.011121888 0.015021799
0.029265426 0.010945669 0.014753907
0.030118063 0.010360239 0.014225513
-0.028612211 0.01291291 0.014781279
-0.027867155 0.01372128 0.015858432
0.027855394 0.013773774 0.015835192
0.028771644 0.012897751 0.014948608
-0.028249554 0.014462869 0.014502606
-0.027488358 0.015201934 0.015197187
0.027538734 0.015190344 0.015107234
0.027815515 0.014703773 0.013867137
-0.026675982 0.016882425 0.014867899
-0.025718803 0.017670352 0.015606161
0.025806941 0.017592711 0.0152342
0.026633134 0.016863834 0.014873366
-0.026157754 0.018145001 0.014245602
-0.025110051 0.018988667 0.015025686
-0.02391755 0.019879747 0.015867312
0.023902202 0.019865498 0.015904466
0.025014693 0.019005429 0.014823118
0.026140004 0.018192455 0.014217955
-0.0243627 0.020376367 0.014589786
-0.023172002 0.021216426 0.015192967
-0.021839567 0.02199113 0.015963128
0.021952068 0.021935105 0.015887108
0.023176882 0.021246674 0.015117337
0.024359906 0.020392749 0.014570274
-0.022395542 0.022388784 0.01459351
-0.0211845 0.023180645 0.015058029
-0.019886846 0.023879357 0.015817618
0.019913673 0.0238986 0.015754258
0.0211854 0.023170613 0.015140443
0.022441415 0.022364553 0.014563973
-0.019725675 0.024049917 0.014419976
-0.018890344 0.024841901 0.014852005
-0.017723141 0.025725653 0.015537187
0.017638147 0.025776682 0.015559577
0.019078214 0.024649842 0.01486862
0.020420512 0.02431489 0.014467154
-0.01819049 0.026155137 0.014158605
-0.016802797 0.026315821 0.014735109
-0.0150675 0.027260127 0.014840131
-0.012766791 0.027827334 0.014154622
0.013678576 0.027867928 0.015887512
0.015060321 0.027152812 0.014931086
0.016797146 0.026531938 0.014671767
0.018157106 0.026146935 0.014220869
-0.014461111 0.028233107 0.014530525
-0.013006934 0.028427489 0.014799571
-0.01091698 0.029145949 0.014772594
-0.0093677631 0.02980325 0.015642358
0.0079760654 0.029995229 0.015991447
0.0094317235 0.029803259 0.015594793
0.011069337 0.029259274 0.014865915
0.012544258 0.028550735 0.014860061
0.014518221 0.028243268 0.014169838
-0.010425891 0.030102894 0.014285056
-0.0089218365 0.030369913 0.014779931
-0.0070586163 0.030473586 0.015007914
-0.004961587 0.031032227 0.014761698
-0.0030486283 0.031007826 0.014718438
-0.00099867268 0.03145963 0.015071397
0.0010519578 0.031355966 0.014875475
0.0028311992 0.031140028 0.014779047
0.0047931992 0.030825822 0.014900343
0.0068943724 0.030549467 0.014880103
0.0089343823 0.030027224 0.014777119
0.0091824783 0.029206054 0.013491576
-0.00023328552 0.032018952 0.014086698
0.0002013652 0.032024056 0.014084173
-0.0066792099 -0.030157367 0.01625777
-0.0049263393 -0.030327301 0.016632797
-0.002942072 -0.030444643 0.016802836
-0.0010583905 -0.030478107 0.016872384
0.0010857359 -0.030461714 0.016853578
0.0029430462 -0.030443458 0.016805198
0.005046282 -0.030276865 0.016528061
0.0066151223 -0.030161668 0.016279889
-0.01238722 -0.028213702 0.016371774
-0.010820094 -0.028353155 0.016737314
-0.0089304931 -0.028890645 0.016950158
-0.0070913695 -0.029138498 0.016848236
-0.0050930255 -0.029739652 0.017589753
-0.003090878 -0.029872125 0.017790033
-0.0012710416 -0.029952649 0.017916523
0.0013567907 -0.029950693 0.017910309
0.0032524562 -0.029872153 0.017765965
0.0051126191 -0.029747544 0.017565494
0.007184661 -0.029348224 0.01697707
0.0089755142 -0.028742747 0.016865987
0.010970796 -0.028451778 0.016783612
0.012394251 -0.028223187 0.016347591
-0.01640329 -0.026216697 0.016290262
-0.014846507 -0.026670203 0.016907083
-0.013092514 -0.027413033 0.017195303
-0.01144217 -0.027850104 0.017717604
0.011985827 -0.027286947 0.017524533
0.012864471 -0.027238715 0.016897628
0.014922351 -0.026632659 0.016903836
0.016296854 -0.026248552 0.016345434
-0.018550253 -0.024240492 0.016276848
-0.017056277 -0.025168506 0.017081806
-0.015646059 -0.02573991 0.01760792
0.015537632 -0.025731739 0.017705927
0.016935024 -0.024978228 0.017031742
0.018220959 -0.024142938 0.016389739
-0.02053388 -0.022538275 0.016601903
-0.019271055 -0.023476981 0.017185988
-0.017909022 -0.023963531 0.017905794
0.017950885 -0.023909427 0.017939024
0.018907594 -0.02314961 0.01668964
0.020522896 -0.022380481 0.016307708
-0.022582833 -0.020409755 0.016607773
-0.021043342 -0.020977011 0.017139224
0.021268198 -0.021456059 0.017267227
0.022486864 -0.020693427 0.016475398
-0.024436137 -0.018554648 0.016540673
-0.023371173 -0.019290309 0.017216209
0.023288211 -0.019156823 0.017059933
0.024460964 -0.018527322 0.016534343
-0.026232498 -0.01631432 0.016352391
-0.025005214 -0.016890151 0.017052591
-0.023943108 -0.017941229 0.017900389
0.023951685 -0.017884899 0.017948266
0.025114495 -0.016980655 0.016871028
0.026250156 -0.016308114 0.01633654
-0.026622189 -0.014736287 0.016774144
-0.024782199 -0.015198514 0.017112365
0.025708035 -0.015679313 0.017629841
0.026475448 -0.014857521 0.016805999
-0.028218182 -0.012438345 0.016315171
-0.027126631 -0.013010562 0.016965237
0.027052807 -0.013110496 0.016862474
0.028223339 -0.012345784 0.016383506
-0.028573861 -0.010890195 0.01687629
-0.027787153 -0.011529027 0.017740292
0.027791841 -0.011568444 0.017708823
0.028324295 -0.010924687 0.016776264
-0.028876264 -0.0089898417 0.016954588
0.028848505 -0.0089213196 0.016760929
-0.030115876 -0.0066231289 0.016291307
-0.02933448 -0.0070783095 0.016956659
0.029287521 -0.0070987591 0.017033679
0.030143227 -0.0064650332 0.016308039
-0.030186679 -0.0050204638 0.016396174
-0.029758327 -0.0050633387 0.017552722
0.029745579 -0.0050497241 0.017584581
0.030289309 -0.0049703224 0.016562577
-0.030418755 -0.0030145047 0.016742026
-0.029868966 -0.0031949331 0.017707421
0.02984429 -0.0030407615 0.017777152
0.029909614 -0.0025506455 0.016484169
-0.030491257 -0.0010229585 0.016890708
-0.028721023 -0.002110308 0.016274069
0.029949995 -0.0012682918 0.017874358
0.03046182 -0.00094749499 0.01695754
-0.030431075 0.001074609 0.016707955
-0.028324544 0.0002477963 0.016716445
0.029930837 0.0013888499 0.017888667
0.030150119 0.00091696845 0.016660329
-0.030129384 0.0029848542 0.016557077
-0.02986333 0.0031330402 0.017727664
0.029879091 0.0030844524 0.017707057
0.030413803 0.0029674151 0.016758649
-0.030179547 0.0050288504 0.016327986
-0.029356761 0.0052791908 0.017290484
0.029757118 0.0051433691 0.017540792
0.03028075 0.0048703719 0.01661141
-0.030146463 0.0065322188 0.016268324
-0.029442459 0.0071471441 0.016992558
0.029273339 0.0068851779 0.016856704
0.030111345 0.0064577376 0.016374735
-0.028914571 0.0089486968 0.016820339
0.029095326 0.008934495 0.01701051
-0.028541496 0.010948891 0.016896857
-0.027294999 0.010821969 0.017348219
0.027773263 0.011656852 0.017671965
0.028221883 0.010831069 0.016612498
-0.028212747 0.012422784 0.01633771
-0.027139219 0.013045236 0.017109884
0.027176779 0.013015971 0.017058128
0.028114572 0.011794169 0.016270895
-0.026449321 0.01458061 0.016642019
-0.025732644 0.015518112 0.017729288
0.025729394 0.015617975 0.017651994
0.026607256 0.014919375 0.016879927
-0.026206646 0.016318852 0.016385304
-0.025114777 0.017087061 0.017129296
-0.023941251 0.017859517 0.01799028
0.023882672 0.017984688 0.017940382
0.025085496 0.017052017 0.016906532
0.026210679 0.016327254 0.016371021
-0.024437238 0.018538419 0.016556416
-0.023182277 0.019085705 0.016982801
0.023380015 0.019266572 0.017246442
0.024419298 0.018520439 0.016601237
-0.022592075 0.020639617 0.016692119
-0.021455269 0.021388371 0.017251421
0.020983445 0.020949721 0.016694747
0.022312202 0.020539764 0.016672662
-0.020362416 0.022473045 0.016750479
-0.01914157 0.023307832 0.016989792
-0.017915765 0.023942636 0.017927453
0.017880341 0.023937888 0.017966995
0.018856328 0.022958718 0.016381627
0.020533914 0.022682037 0.016700933
-0.018565916 0.024419909 0.016569879
-0.017022818 0.024896765 0.017071003
-0.015540076 0.025755199 0.017671062
0.01559773 0.025731128 0.017658895
0.017022476 0.024803324 0.016853487
0.018268481 0.024147365 0.016432784
-0.016324237 0.02623662 0.016337689
-0.014598898 0.026464963 0.016674655
-0.013163069 0.027401863 0.017154407
-0.010965264 0.026800677 0.01762094
0.011526351 0.027785609 0.017777255
0.013060379 0.027219629 0.017075218
0.01483997 0.026351878 0.016679628
0.016299659 0.026232863 0.016364882
-0.012354624 0.028228078 0.016371865
-0.010887377 0.028053526 0.016680205
-0.0090791769 0.028950512 0.017019819
-0.0071041267 0.029132757 0.016732931
-0.0049873679 0.029192349 0.017481394
-0.0031928916 0.029855397 0.017800236
-0.0011268271 0.02995925 0.017922265
0.001474675 0.029949043 0.017899474
0.003120892 0.029855648 0.017810576
0.0051232418 0.029751567 0.017557634
0.0071886801 0.0293159 0.016946843
0.0089780577 0.028899297 0.016883463
0.010823353 0.028557364 0.016709499
0.012515963 0.028185984 0.01631969
-0.0066900463 0.030157831 0.016255448
-0.0048818262 0.029975262 0.016455995
-0.0029242451 0.030163014 0.016551588
-0.00081251556 0.030300204 0.016891861
0.00095570646 0.030505566 0.016905485
0.0029734951 0.03042753 0.016830858
0.0049608983 0.030325608 0.016633758
0.0061423662 0.030085094 0.015878914
-0.010239863 -0.028043497 0.018046897
-0.0086221565 -0.027961144 0.018064784
-0.00695355 -0.028526403 0.018870313
-0.0050713918 -0.02866547 0.018908346
-0.0030446507 -0.029111344 0.018955866
-0.0011643415 -0.029266661 0.018666185
0.00096539897 -0.029268991 0.019004943
0.0029854868 -0.029061746 0.01904056
0.0048943902 -0.028609414 0.018799473
0.0069506415 -0.028549202 0.018834606
0.0087965084 -0.027803825 0.018407021
0.010175498 -0.028052943 0.018065514
-0.014172234 -0.026153708 0.018209765
-0.012863321 -0.026515678 0.018704336
-0.011013292 -0.027142834 0.018943014
-0.0089438763 -0.027367091 0.019211063
-0.0073800758 -0.027857304 0.019791991
-0.0059993705 -0.027977798 0.019995613
0.0073900293 -0.02785054 0.019794669
0.008907564 -0.027377304 0.019231692
0.01105238 -0.027072281 0.019039746
0.01277875 -0.026320428 0.018471207
0.014180582 -0.026182517 0.018162113
-0.016641721 -0.024397101 0.018512258
-0.015013534 -0.024974566 0.018955795
-0.013052405 -0.025609095 0.019520633
-0.01194151 -0.025967317 0.019982975
0.013357272 -0.025641592 0.019265587
0.015019372 -0.025065618 0.019053129
0.016389061 -0.024520667 0.018446315
-0.020074517 -0.022139952 0.018126169
-0.018830927 -0.022668345 0.018694878
-0.017226256 -0.023369281 0.019299986
-0.01590107 -0.023901151 0.019870054
0.01588179 -0.023924399 0.019857017
0.017266456 -0.023354921 0.019278854
0.018592451 -0.022468971 0.018266512
0.020076586 -0.02211621 0.018148299
-0.02201312 -0.020031713 0.018129949
-0.020725559 -0.02077931 0.018814618
-0.01919036 -0.020868495 0.019247368
0.019099277 -0.0213563 0.019362042
0.020478129 -0.020635936 0.01855563
-0.022469765 -0.018581355 0.018536827
-0.021451565 -0.019480502 0.019400461
0.02143609 -0.019076424 0.019175028
0.022505546 -0.018792493 0.018734025
-0.024382427 -0.016628295 0.018563887
-0.023444001 -0.017255526 0.019252371
0.023313718 -0.016943438 0.018901613
0.024410615 -0.016594594 0.018558383
-0.026114631 -0.014234491 0.01819383
-0.024995914 -0.014877577 0.018896397
-0.023888117 -0.015856329 0.019843861
0.023955747 -0.015742779 0.019848989
0.024817122 -0.014974711 0.018756334
0.026113898 -0.014281603 0.018160669
-0.026102511 -0.012564582 0.017912831
-0.025645906 -0.013362667 0.019501353
0.025665903 -0.013368513 0.019469183
0.026487246 -0.01282171 0.018682143
-0.02808672 -0.010188971 0.01811593
-0.027013825 -0.011049191 0.018880831
0.0259852 -0.011956995 0.019983072
0.027100867 -0.010946574 0.01893815
0.028094774 -0.010233726 0.018083818
-0.028299484 -0.0088288188 0.018384958
-0.027581427 -0.0091085052 0.019331181
0.027536662 -0.009121093 0.019389963
0.028277934 -0.0088176439 0.018422183
-0.02846439 -0.0067276703 0.018726904
-0.02780873 -0.0072859512 0.019776711
0.027805405 -0.0073877466 0.019738743
0.02854443 -0.0069282837 0.018833434
-0.02841928 -0.0047552716 0.018633982
-0.027987776 -0.00584797 0.01997729
0.02798762 -0.0058475635 0.019977607
0.028787285 -0.0050839628 0.018957118
-0.029114058 -0.0030009476 0.018962987
0.028884275 -0.002901373 0.018695962
-0.029279465 -0.0010015778 0.018980002
0.029134911 -0.0010791287 0.018685084
-0.029262923 0.0010018697 0.019000648
0.029271748 0.00089548394 0.01889549
-0.029074633 0.0028546264 0.018972816
0.029064212 0.0030405577 0.018949743
-0.028832536 0.0049887728 0.018850129
-0.027986646 0.0058562565 0.019976558
0.02797427 0.0059352387 0.019971736
0.028854502 0.0050344216 0.01900271
-0.028528789 0.0069387611 0.018849013
-0.027843447 0.0071631707 0.019766267
0.027867591 0.0073354286 0.019637052
0.028512061 0.0068792691 0.018628152
-0.028286271 0.008797897 0.018418197
-0.02728132 0.0090757227 0.019373033
0.027564242 0.0091421958 0.01934265
0.027824989 0.0086706569 0.018365841
-0.028086875 0.010244788 0.018091535
-0.027031744 0.010919911 0.018924408
0.027042061 0.011040987 0.019071791
0.028070554 0.010294232 0.018090721
-0.026282266 0.012632691 0.018557701
-0.025603957 0.013175108 0.019114561
0.025675785 0.01336756 0.019456288
0.026469233 0.012813607 0.018713886
-0.026167115 0.01417465 0.018161559
-0.024769543 0.014841491 0.018856073
-0.023868859 0.015826166 0.019893466
0.023924975 0.015814876 0.019829964
0.024897778 0.014954213 0.018769458
0.026139595 0.014200551 0.018182447
-0.024070706 0.016519014 0.018167507
-0.02343018 0.017235022 0.019293852
0.023458429 0.01721116 0.019273397
0.024447462 0.016341701 0.018035714
-0.022661462 0.018626492 0.018416714
-0.021431876 0.019453887 0.019451167
0.021260064 0.019149486 0.019416263
0.022586485 0.018734707 0.018803328
-0.022040237 0.02003099 0.018096576
-0.0207891 0.020794436 0.018731264
-0.019356284 0.021049844 0.019264307
0.019367088 0.021201426 0.019140143
0.020459449 0.020612547 0.018739123
0.022072507 0.020039234 0.018046286
-0.020097125 0.022144495 0.018092806
-0.018636426 0.022512877 0.018519014
-0.017040007 0.023306994 0.019049538
-0.015928445 0.023912784 0.019828865
0.015823254 0.023915958 0.019923141
0.017186003 0.023438821 0.01925124
0.018746415 0.022371126 0.018368393
0.020125451 0.022076089 0.01813191
-0.01660018 0.024069687 0.018303743
-0.014983645 0.025089255 0.018905492
-0.012970689 0.025297333 0.019375924
0.013292128 0.02567488 0.019524844
0.014781465 0.02482775 0.018853201
0.016501402 0.024193075 0.018279072
-0.014204604 0.026149184 0.018190149
-0.012686952 0.02646119 0.018532004
-0.010832279 0.027007967 0.01889419
-0.0093704611 0.027264195 0.019076627
-0.0073142187 0.027877798 0.0197805
0.0073438897 0.027867293 0.019787187
0.0091378344 0.02754779 0.019376315
0.011014338 0.027134815 0.018973261
0.01285055 0.026436592 0.018421201
0.014276046 0.026128383 0.018162234
-0.010231283 0.028044339 0.018050054
-0.0087792203 0.028258385 0.018468268
-0.0068395701 0.028398769 0.018734589
-0.0048398348 0.028786268 0.018900357
-0.0030147813 0.029067025 0.019026954
-0.00087614154 0.029237522 0.018970607
0.0010309614 0.0292856 0.018971963
0.0030412187 0.02909301 0.018984076
0.0049585057 0.028610021 0.018870296
0.0068896809 0.028330993 0.018740658
0.008861904 0.028299807 0.018358078
0.010088487 0.028053503 0.018110339
-0.0045733708 -0.028104736 0.020148581
-0.0025429481 -0.027845934 0.020193612
-0.0012866015 -0.027841423 0.020269066
0.0010070229 -0.028294114 0.020388678
0.0029025851 -0.028222244 0.020326907
0.0045810235 -0.028093642 0.020163072
-0.010558161 -0.026297772 0.020315845
-0.0089736432 -0.02649197 0.020723403
-0.0070253131 -0.026964959 0.020816803
-0.0050950018 -0.027343186 0.021060692
-0.0030168563 -0.027564665 0.021258671
-0.0010586565 -0.027558107 0.021371966
0.00098545745 -0.027546497 0.021387648
0.003181088 -0.027435265 0.02122068
0.0050970213 -0.027298277 0.021114256
0.0069618043 -0.026830189 0.020926775
0.0089495415 -0.026580747 0.020645279
0.010613973 -0.026259104 0.02033788
-0.014622647 -0.024313947 0.020412456
-0.012697972 -0.024299813 0.020537302
-0.01103557 -0.025120575 0.020842478
-0.0089694513 -0.025121097 0.021271639
-0.0078914193 -0.025914555 0.0219584
0.0077758776 -0.025956169 0.021949641
0.0091710156 -0.025715569 0.021731203
0.011152903 -0.025397887 0.021096328
0.01295081 -0.024641361 0.020647727
0.014552944 -0.024353625 0.020415498
-0.018062649 -0.022051826 0.020047611
-0.016383706 -0.022489671 0.020205982
-0.014946936 -0.023145434 0.020837387
-0.013513836 -0.023728514 0.021724558
0.013489122 -0.023735199 0.021731872
0.015153577 -0.023210423 0.021207303
0.016362587 -0.022301042 0.020330908
0.018016409 -0.022061612 0.020076789
-0.020035483 -0.020221636 0.020089885
-0.018726246 -0.020786809 0.020801077
-0.017299678 -0.020969529 0.021149149
-0.015879944 -0.021950379 0.021941587
0.015904531 -0.021927884 0.021946413
0.017024156 -0.021350358 0.02134894
0.018753586 -0.020781133 0.020781077
0.020123122 -0.020084193 0.020139685
-0.022176949 -0.018036816 0.020111624
-0.020770557 -0.018775996 0.020771476
-0.01938512 -0.019378904 0.021122715
0.019512765 -0.019364981 0.021303382
0.020793375 -0.018709384 0.020712955
0.022148609 -0.01810292 0.020084219
-0.022361124 -0.016728675 0.020557923
-0.021416541 -0.017255455 0.021426508
0.020825222 -0.017116912 0.021082295
0.022576692 -0.016807858 0.020622579
-0.024417231 -0.013936038 0.020120075
-0.023221646 -0.015131559 0.021140626
-0.021956814 -0.015887167 0.021929342
0.021888219 -0.015961733 0.021948094
0.023171972 -0.015086146 0.021041358
0.024311105 -0.014529772 0.020374829
-0.024725797 -0.012877747 0.020647001
-0.022756955 -0.013208123 0.021235088
0.023729114 -0.013537923 0.021729032
0.02459489 -0.012986668 0.020711603
-0.026255971 -0.010608617 0.020363772
-0.024897574 -0.011066241 0.020951305
0.0251457 -0.010986398 0.021126002
0.026228489 -0.01067858 0.020361949
-0.026450096 -0.0088496488 0.020491803
-0.025713958 -0.0093168281 0.021690566
0.025181364 -0.0090417759 0.020845938
0.026546549 -0.0087232795 0.020755062
-0.026932023 -0.0068402449 0.020694267
-0.025968693 -0.0079330597 0.021981096
0.026753141 -0.0069408119 0.020752199
-0.028131528 -0.0045368113 0.020139813
-0.027297262 -0.005041677 0.021112919
0.026948305 -0.0050970111 0.020922212
0.027253551 -0.0045986515 0.018629307
-0.028217532 -0.0029930477 0.020315554
-0.027514944 -0.00305187 0.021310775
0.027280023 -0.002978619 0.021127705
0.028214714 -0.002956752 0.02032486
-0.028034925 -0.00075928349 0.020312337
-0.027497701 -0.0010665756 0.021198425
0.027456876 -0.00093572185 0.021196298
0.028273528 -0.00090319157 0.020409729
-0.02828696 0.00094023725 0.020391874
-0.027522778 0.00084866944 0.021229479
0.027540384 0.0010506521 0.021390447
0.028001804 0.00082189805 0.020359011
-0.028213171 0.0029345616 0.020329813
-0.02750149 0.0029421193 0.021347836
0.02734174 0.0031488573 0.021301385
0.028211074 0.0030013165 0.019904234
-0.028130753 0.0045750653 0.02013026
-0.027210204 0.0049324157 0.020954946
0.027294094 0.0050556557 0.021114359
0.026737345 0.0051629473 0.019816881
-0.026694292 0.0069789602 0.020993803
-0.025965083 0.0079474468 0.021979742
0.026864719 0.0069518648 0.020825386
-0.026610026 0.0089275278 0.020782122
-0.025095819 0.0091804555 0.021673461
0.025485016 0.0089583742 0.021067197
0.026446324 0.0087491851 0.020727798
-0.026233723 0.010736558 0.020323042
-0.025357226 0.011197325 0.021190276
0.025198339 0.011057861 0.021054849
0.026293425 0.010541061 0.020350955
-0.024794469 0.012933347 0.020803211
-0.022135695 0.013104113 0.019715847
0.023744319 0.013438989 0.021776779
0.024681477 0.013087529 0.020729018
-0.024350008 0.01450399 0.020347893
-0.023165122 0.015120339 0.021208744
-0.021957031 0.015833572 0.021967154
0.02190499 0.015898593 0.021975383
0.023053309 0.01505231 0.021132927
0.02430691 0.014504469 0.020401381
-0.022603212 0.016779212 0.02061574
-0.02115263 0.016832296 0.021058239
0.021280322 0.017050821 0.021392442
0.022567356 0.016773261 0.02065764
-0.02208931 0.018153638 0.020093398
-0.020693816 0.018809929 0.020538872
-0.019170381 0.019296346 0.021247793
0.019259458 0.019486029 0.020766882
0.02048566 0.018674031 0.020479886
0.022125402 0.018140981 0.020075293
-0.020065831 0.020163737 0.020117434
-0.018799609 0.02076507 0.020752965
-0.017063018 0.021279072 0.021219429
-0.015948186 0.021920469 0.021923859
0.015906362 0.021921569 0.021951213
0.017286461 0.021391386 0.02142919
0.018757595 0.020648351 0.020551998
0.020088229 0.02014883 0.020109946
-0.016646242 0.022619538 0.020648522
-0.01514954 0.023224389 0.021198586
-0.013504163 0.023719572 0.021739243
0.013445845 0.023765054 0.021726126
0.015055493 0.023113348 0.021028815
0.016567439 0.02237427 0.020377195
0.018076703 0.022062128 0.020024326
-0.014679936 0.024301432 0.020121584
-0.012740846 0.024681492 0.020691991
-0.010997247 0.025213392 0.020946078
-0.00935404 0.025733888 0.021633005
-0.007854742 0.025936259 0.021945808
0.0079597505 0.025952479 0.021891324
0.0094176522 0.025669502 0.021566829
0.011105912 0.025395362 0.021023521
0.012638832 0.024410421 0.020733068
0.01383049 0.02420277 0.020226756
-0.010700626 0.026262226 0.020290557
-0.0088939015 0.026624413 0.02071734
-0.0070973961 0.026839502 0.020728922
-0.0050533805 0.027324798 0.021091031
-0.0030445568 0.027473236 0.021368075
-0.00094218145 0.027302936 0.021314362
0.0010831803 0.027421821 0.021105802
0.0028892828 0.027483797 0.021121209
0.0050719487 0.027063299 0.021165548
0.0068450375 0.026920101 0.020913534
0.0088050617 0.026319548 0.020424325
0.010721711 0.026231667 0.020318964
-0.0046250336 0.028106363 0.020133168
-0.0031638141 0.028092729 0.020081526
-0.001003458 0.028299283 0.020379135
0.00086556148 0.028278487 0.02038255
0.0028252008 0.028278921 0.020235157
0.0047616083 0.028098354 0.020112447
-0.0065560178 -0.026119102 0.022162348
-0.0048700813 -0.026337245 0.02234865
-0.002804511 -0.02625012 0.022408437
-0.0011291592 -0.02616865 0.022336906
0.0010016031 -0.026318712 0.022569692
0.0029225578 -0.026196197 0.022524578
0.0045605837 -0.026126903 0.021999631
0.0064581512 -0.026126167 0.022186462
-0.012111097 -0.024102051 0.022145923
-0.010678733 -0.02417922 0.022231463
-0.0089235669 -0.024708161 0.022691147
-0.007034142 -0.025042623 0.022827713
-0.005146414 -0.025230244 0.023177341
-0.0030383782 -0.025544271 0.023547202
-0.00091554562 -0.025625119 0.022899855
0.001245445 -0.025390973 0.023224549
0.0032064547 -0.02548309 0.023245903
0.0048233867 -0.02543027 0.023178156
0.0071081505 -0.025083054 0.022999644
0.0088698613 -0.024819756 0.022853561
0.010534644 -0.024196606 0.022317465
0.01212112 -0.024108628 0.022133458
-0.014563693 -0.022419881 0.022385379
-0.012910018 -0.022880925 0.022936953
-0.01119685 -0.023111885 0.022872718
-0.0092998901 -0.023770252 0.023791434
0.0091147842 -0.023504971 0.022807701
0.011015544 -0.023366392 0.023301708
0.01294429 -0.022868495 0.022844134
0.014543776 -0.022405645 0.022413
-0.018163566 -0.020062948 0.022117741
-0.016845381 -0.020554472 0.022397138
-0.01513896 -0.021199534 0.023161165
-0.013603518 -0.021695215 0.023723604
0.013490445 -0.02171367 0.023777217
0.015007918 -0.02117667 0.023067566
0.016694469 -0.020323461 0.022245014
0.018070985 -0.020179361 0.022073967
-0.020003332 -0.018036174 0.022113584
-0.018577565 -0.018755808 0.022474248
-0.017092945 -0.019052433 0.023388861
-0.015845936 -0.0198236 0.023910303
0.015765309 -0.019828226 0.023957564
0.017276781 -0.019161191 0.023387114
0.018709779 -0.018720092 0.022490285
0.020055683 -0.018075906 0.022033885
-0.020485342 -0.016834285 0.022208232
-0.019071357 -0.017205376 0.023210123
-0.017931869 -0.017934835 0.023925999
0.017965691 -0.017828055 0.023975436
0.01908399 -0.01729672 0.023241369
0.020396428 -0.016790709 0.022540627
-0.022409184 -0.014544971 0.022409054
-0.021238465 -0.015127252 0.023195902
-0.019829527 -0.015857013 0.023962257
0.019832602 -0.015925216 0.023912253
0.021192072 -0.014966401 0.023187088
0.022374647 -0.014587438 0.022414515
-0.024140159 -0.012115295 0.022136981
-0.022829542 -0.013008343 0.022813875
-0.021767763 -0.013414906 0.023741666
0.021773793 -0.013492373 0.023692396
0.02289479 -0.012787949 0.022797074
0.024083838 -0.012290535 0.022105422
-0.024390621 -0.010820268 0.022459231
-0.023413446 -0.011222465 0.02332125
0.023377296 -0.010784801 0.02304782
0.024426473 -0.010765492 0.02244498
-0.024815315 -0.0088865487 0.022838209
-0.023767874 -0.0094207367 0.023750747
0.023749966 -0.0094698491 0.023752514
0.024629064 -0.0087669678 0.022865497
-0.026116241 -0.0067202444 0.022143668
-0.025174351 -0.0070438464 0.023108508
0.025230847 -0.0069983029 0.022985732
0.026112696 -0.0066932696 0.022154797
-0.026362723 -0.0048653483 0.022068977
-0.025429267 -0.0050519761 0.023355605
0.025458863 -0.0050561056 0.023320714
0.02590513 -0.0045958185 0.022357814
-0.026251247 -0.0031375764 0.022350697
-0.025379706 -0.0027822156 0.023484675
0.024639614 -0.0030947812 0.022934219
0.026255289 -0.0027683924 0.022449395
-0.026204996 -0.0011219616 0.022220341
-0.025662044 -0.00097085995 0.023621978
0.025669388 -0.00093138847 0.023617946
0.02635777 -0.0011496397 0.022355104
-0.026495684 0.00096169015 0.022301035
-0.02568526 0.0011493248 0.023471534
0.025446104 0.00084415742 0.023520309
0.026274657 0.0011629099 0.022356439
-0.026492083 0.0029802655 0.022544771
-0.025567744 0.003008825 0.023522794
0.025560329 0.0029160208 0.023541518
0.026479268 0.0029186639 0.022565756
-0.026337054 0.0048665106 0.022344667
-0.0252552 0.0048518837 0.02285919
0.025449371 0.00504618 0.023334485
0.02598051 0.0046755951 0.022330547
-0.025596164 0.0055623055 0.020265371
-0.024920674 0.0070751193 0.02285298
0.025047863 0.0070430352 0.022886453
0.026115971 0.0066672862 0.022157304
-0.024661573 0.0089353798 0.022798115
-0.023780275 0.0093308501 0.023772011
0.023782961 0.0093306452 0.023768676
0.024800878 0.0088774888 0.022856902
-0.02409918 0.010630675 0.022067467
-0.023183318 0.010831156 0.022699574
0.023397595 0.01113492 0.023383124
0.024425015 0.010843424 0.02241062
-0.024125386 0.012231855 0.022089373
-0.02270898 0.012815399 0.022728212
-0.021729708 0.013470918 0.023747507
0.021706302 0.013504812 0.023751413
0.022733644 0.013050941 0.022799646
0.024094539 0.012247448 0.022114556
-0.022377057 0.014566788 0.0224261
-0.021030692 0.01499134 0.023054069
-0.013260126 0.013731556 0.02231971
0.019879127 0.015916748 0.023883432
0.020881956 0.014881711 0.023109823
0.022383012 0.01454586 0.022435443
-0.020162936 0.016376246 0.022332555
-0.019259164 0.017255172 0.023378631
-0.017937319 0.017868627 0.023968242
0.017888011 0.01796142 0.023940155
0.019109862 0.017292166 0.023362184
0.020626249 0.016544672 0.022378465
-0.018792393 0.018639678 0.022270724
-0.016968019 0.019306852 0.023413545
-0.015867423 0.019850349 0.023876118
0.015839636 0.019861512 0.023885021
0.017054362 0.019168483 0.023269815
0.018763175 0.018826062 0.022610642
0.020092305 0.018063117 0.022010302
-0.018128842 0.020138133 0.022066934
-0.016811781 0.020594943 0.022601658
-0.015150999 0.021003967 0.02300287
-0.013046382 0.021663897 0.022920188
0.013580437 0.021719055 0.023712168
0.015104203 0.021170285 0.023211086
0.016824717 0.020482102 0.022432411
0.018158522 0.02006332 0.022120193
-0.014503832 0.021929737 0.02205511
-0.012880376 0.02252637 0.022629078
-0.011206566 0.023382658 0.023363136
-0.0094978847 0.023747724 0.023745146
0.0092903832 0.023758668 0.023806585
0.011032367 0.023182129 0.023252977
0.012863061 0.02291223 0.022796836
0.014625113 0.02239543 0.022367038
-0.012205891 0.024094131 0.02209973
-0.010490443 0.024092432 0.021969568
-0.0089686755 0.024799326 0.022856833
-0.0068871356 0.024973078 0.022965835
-0.0051491563 0.025374377 0.023271311
-0.0027859393 0.025403466 0.023322618
-0.00078865624 0.025471773 0.023583038
0.0011534771 0.02499235 0.023268467
0.00315099 0.025406918 0.023323035
0.0046721254 0.025276002 0.023209188
0.0071617039 0.02508623 0.023001699
0.0089247338 0.024832066 0.022837248
0.010829748 0.024265695 0.022267103
0.012139381 0.024131291 0.022099819
-0.0065477788 0.026125412 0.022160318
-0.0049112546 0.026312398 0.022367675
-0.0029897143 0.026477842 0.022547832
-0.00097307825 0.02659492 0.022553697
0.00086547254 0.02637968 0.022376141
0.0029631772 0.026512874 0.022515226
0.0048484602 0.0262981 0.022014217
0.0064751152 0.026147647 0.022154907
-0.0066582584 -0.024273627 0.024212396
-0.0047303559 -0.023768747 0.024336973
-0.0029436876 -0.024565561 0.024576668
-0.00099880411 -0.024686433 0.024670789
