# .PCD v0.7 - Point Cloud Data file format
VERSION 0.7
FIELDS x y z
SIZE 4 4 4
TYPE F F F
COUNT 1 1 1
WIDTH 1244
HEIGHT 1
VIEWPOINT 0 0 0 1 0 0 0
POINTS 1244
DATA ascii
0.036636401 -0.030656844 -0.012904511
-0.03769784 -0.027708571 -0.013139611
-0.037594907 -0.029488983 -0.012952553
-0.024751669 -0.02860865 -0.013021707
-0.023567244 -0.029580809 -0.013057539
0.023538819 -0.029604139 -0.013074264
0.024224786 -0.028559409 -0.013018641
0.03710591 -0.029725209 -0.013011211
0.038400684 -0.028507214 -0.013009564
-0.0401421 -0.026234597 -0.013016666
-0.038994107 -0.027332235 -0.013069903
-0.026399996 -0.026849367 -0.013084956
-0.025760554 -0.027780607 -0.013054382
0.02569464 -0.027834699 -0.013045665
0.02683598 -0.026823465 -0.013094462
0.039450433 -0.027225461 -0.013018027
0.04012043 -0.026275149 -0.012949349
-0.04083629 -0.024935767 -0.012973178
-0.028601956 -0.024759835 -0.012976269
-0.027800107 -0.02573679 -0.012945726
0.027779261 -0.025762189 -0.012962599
0.028671717 -0.024659865 -0.013063743
0.040804833 -0.024994629 -0.012928735
-0.041113622 -0.021528296 -0.013190709
-0.041746099 -0.022926595 -0.013135265
-0.030477675 -0.022474533 -0.012870544
-0.029629447 -0.023507984 -0.012990291
0.029204501 -0.022759514 -0.013014913
0.030406803 -0.022560889 -0.012931677
0.041644003 -0.023424502 -0.013016211
0.040933311 -0.021687213 -0.013246825
-0.042941052 -0.020997679 -0.012931657
-0.03209674 -0.020174993 -0.012966805
-0.031474493 -0.021207437 -0.013015076
0.031493686 -0.021183565 -0.012998875
0.032092843 -0.020182278 -0.013121457
0.042535137 -0.02055894 -0.012999096
-0.044249985 -0.018519605 -0.012911282
-0.043731999 -0.019517811 -0.01299216
-0.032719858 -0.019008974 -0.013031523
0.0327066 -0.019033782 -0.013028353
0.043748133 -0.019487632 -0.012947184
0.044220481 -0.018579371 -0.012986071
-0.044592518 -0.016555974 -0.013106869
-0.03416495 -0.016304839 -0.012961936
-0.033628386 -0.017308883 -0.012982439
0.033637404 -0.017291997 -0.013138943
0.034132089 -0.016366325 -0.013141325
0.044751931 -0.017030988 -0.013065984
-0.04515449 -0.014562246 -0.013047492
-0.034828428 -0.01503712 -0.012959348
0.034835305 -0.015022913 -0.013014897
0.045024846 -0.015244892 -0.013103173
-0.046145428 -0.012437827 -0.013047941
-0.045828976 -0.013480932 -0.012992108
-0.035016928 -0.012846284 -0.013208465
0.035582773 -0.012973917 -0.012967176
0.04583643 -0.013456349 -0.013023199
0.046139497 -0.012457376 -0.013023051
-0.046591911 -0.010966228 -0.012987075
-0.03559415 -0.010533212 -0.013056817
-0.035976011 -0.011669174 -0.01331317
0.035927549 -0.01183756 -0.012914957
0.036225036 -0.010857113 -0.013000019
0.046593476 -0.01096105 -0.012946381
-0.04709734 -0.0089968974 -0.01313018
-0.036651105 -0.0083219334 -0.0131033
0.036821514 -0.0088911299 -0.013006455
0.0470853 -0.0090215597 -0.012947831
-0.047308926 -0.0070186052 -0.013014977
-0.037293147 -0.0070124795 -0.012961129
0.037292287 -0.0070391814 -0.012953962
0.047311459 -0.0069928486 -0.013005064
-0.047509756 -0.0049789944 -0.012996466
-0.037507471 -0.0050016213 -0.013123913
0.037561525 -0.0049070637 -0.013078003
0.047508158 -0.0049953097 -0.012991949
-0.047707576 -0.0029698752 -0.013003292
-0.037317708 -0.0032563088 -0.013103958
0.037701372 -0.0030324385 -0.012941313
0.047525927 -0.002736334 -0.013079701
-0.047836807 -0.00070552406 -0.013060808
-0.037907727 -0.00093716534 -0.012944603
0.03789898 -0.0010257517 -0.013072019
0.047900546 -0.0010101295 -0.012981239
-0.047899745 0.0010182908 -0.013023796
-0.037897099 0.0010448841 -0.01304828
0.037897866 0.0010371293 -0.013034876
0.047899816 0.0010175508 -0.012993912
-0.047707889 0.0029667199 -0.012939157
-0.037703793 0.0030078844 -0.012986954
0.037708756 0.0029575464 -0.012987174
0.047656737 0.0032078931 -0.013059639
-0.047503009 0.0050476375 -0.013006708
-0.037514966 0.004925394 -0.012937359
0.036946364 0.004744268 -0.013045073
0.047366071 0.0051512336 -0.013095261
-0.047314875 0.0069581699 -0.013009172
-0.037294496 0.0069905263 -0.013010692
0.037297063 0.0069753644 -0.013071354
0.047308162 0.0070264861 -0.012979753
-0.047090802 0.0090146409 -0.013077998
-0.036801379 0.0089575229 -0.012978991
0.036794234 0.0089811273 -0.01302645
0.046905559 0.0086385524 -0.013050864
-0.04657368 0.011026255 -0.012920487
-0.036257409 0.010750398 -0.012965251
-0.035939917 0.011796794 -0.013053722
0.035942085 0.011789662 -0.013020591
0.036259808 0.010742475 -0.013000439
0.045971654 0.01090496 -0.012980465
-0.046129487 0.012490374 -0.012961502
-0.045809254 0.01354355 -0.013160141
-0.03555027 0.013081055 -0.013035783
0.035662279 0.012987831 -0.013056574
0.045846079 0.013424577 -0.013017222
0.046140667 0.012453553 -0.013055699
-0.045352492 0.015051438 -0.0129869
-0.034864545 0.014959017 -0.012969943
0.03485192 0.014992907 -0.012956625
0.045365307 0.015009207 -0.013073117
-0.0447639 0.016991552 -0.01294873
-0.034178417 0.016279625 -0.012960681
-0.033637762 0.017291337 -0.012874922
0.033454936 0.016793333 -0.013025992
0.034179818 0.016277004 -0.012951355
0.044760108 0.017004063 -0.013040194
-0.04421702 0.018587381 -0.01311958
-0.042853739 0.019647803 -0.013073855
-0.032692358 0.019060435 -0.012925223
0.032817364 0.018707508 -0.013047032
0.043747179 0.019489421 -0.01298778
0.044268172 0.018488621 -0.01314101
-0.042880837 0.020885751 -0.013034975
-0.032109842 0.020150475 -0.012866828
-0.03154853 0.021100728 -0.013008223
0.031439979 0.021251379 -0.012891586
0.032103773 0.020161834 -0.012774919
0.042971734 0.020940293 -0.012984422
-0.042200532 0.022383226 -0.013041181
-0.041654743 0.02340441 -0.013012035
-0.030470898 0.022482788 -0.013042959
-0.029609803 0.023531919 -0.013002275
0.029640382 0.023494657 -0.013013682
0.030458765 0.022497559 -0.013063245
0.041666854 0.023381747 -0.012952091
0.042232733 0.022323007 -0.013081962
-0.039937187 0.024529083 -0.013029339
-0.028614001 0.02474517 -0.013009527
-0.027793344 0.025745029 -0.013041873
0.027801944 0.025734548 -0.013087936
0.028603738 0.02475768 -0.012958096
0.040809888 0.024985127 -0.013056389
-0.040130179 0.026256906 -0.012835197
-0.038967106 0.027267991 -0.013096161
-0.026851466 0.026807701 -0.013051867
-0.024299683 0.027825795 -0.013090215
0.025743425 0.027794659 -0.013050469
0.026860701 0.02680248 -0.013068
0.0394844 0.027182927 -0.013012464
0.040143069 0.02623279 -0.013128994
-0.037695948 0.027941134 -0.013102956
-0.037592608 0.029491788 -0.013026311
-0.024745367 0.028613834 -0.012931617
-0.023546465 0.029597862 -0.013021304
0.023613509 0.029542832 -0.013051397
0.024784554 0.028581671 -0.013051314
0.037611727 0.02946848 -0.01312735
0.038399279 0.028508916 -0.013062177
-0.036585305 0.030719107 -0.012997345
-0.035733864 0.031756517 -0.013201498
-0.022519726 0.030440584 -0.013079758
-0.021461625 0.031208584 -0.013047842
0.021150867 0.031509932 -0.013058688
0.02256722 0.030401589 -0.012980624
0.035816204 0.031656202 -0.012890828
0.036587644 0.030716261 -0.013055842
-0.034663428 0.03246747 -0.013019846
-0.033935312 0.033941194 -0.013000805
-0.020173509 0.032097526 -0.013058972
-0.018976009 0.032737479 -0.013008893
-0.017347783 0.03360761 -0.01298186
0.017323775 0.033620428 -0.01297704
0.018937014 0.03275831 -0.013105989
0.020190457 0.03208847 -0.012956016
0.033934534 0.03394087 -0.013025359
0.034749974 0.032955315 -0.01298386
-0.032798782 0.034263108 -0.013051451
-0.031697713 0.035782132 -0.013091171
-0.016340112 0.034146093 -0.012948194
-0.015049318 0.034822013 -0.012952113
-0.013039161 0.03556297 -0.013015684
-0.011786549 0.035943031 -0.013031348
0.01182165 0.035932381 -0.013062885
0.013019171 0.034593064 -0.01311002
0.014615233 0.034446392 -0.013091052
0.0162964 0.034169454 -0.012877064
0.031729568 0.035755996 -0.012952301
0.032897778 0.034462698 -0.013066871
-0.030660855 0.036633123 -0.012950088
-0.029462017 0.037617035 -0.013022838
-0.010738018 0.035457749 -0.013058367
-0.0091180522 0.036563363 -0.013082176
-0.0069402521 0.037347354 -0.013104705
-0.0049369424 0.037513837 -0.013017779
-0.0029721714 0.037707314 -0.013023633
-0.0012210914 0.037663825 -0.013114672
0.00071536424 0.037613764 -0.013114475
0.0028924791 0.037715171 -0.0129677
0.0049525038 0.036818761 -0.013009328
0.0068931072 0.037309267 -0.012951501
0.0089964811 0.036789559 -0.012948331
0.010875851 0.036219347 -0.013011036
0.02961001 0.036817353 -0.013050413
0.030111782 0.036566254 -0.012983231
-0.028502086 0.038404889 -0.01302097
-0.027339285 0.039357919 -0.012956668
0.027303495 0.039386686 -0.013017105
0.028466342 0.038434215 -0.012887527
-0.026253492 0.040131997 -0.01293055
-0.024660958 0.040228415 -0.013130631
-0.023402421 0.041655801 -0.012930713
0.023386637 0.041664239 -0.012989454
0.02497923 0.040813051 -0.012916423
0.026238488 0.040140025 -0.013000111
-0.022381229 0.042201601 -0.013030621
-0.021018703 0.042929828 -0.013023012
-0.018854929 0.043338656 -0.013092017
0.019437708 0.043774817 -0.013177688
0.020893028 0.042996991 -0.012996188
0.022365002 0.042210273 -0.012974008
-0.018510718 0.04425339 -0.01300732
-0.017042171 0.044748537 -0.012948867
-0.01457615 0.045238499 -0.013092282
-0.012496132 0.044881217 -0.013087248
0.013489845 0.045826267 -0.012976852
0.015182558 0.045112431 -0.013014123
0.016912209 0.044787977 -0.012970676
0.018468764 0.044275012 -0.013117658
-0.012465036 0.046137188 -0.012952717
-0.010891838 0.046614472 -0.012947812
-0.0086660711 0.046767399 -0.01309428
-0.0065462613 0.046926048 -0.013081408
-0.0049568466 0.047511935 -0.013080047
-0.0029839342 0.047679745 -0.013059992
-0.0010466591 0.04789694 -0.013025957
0.0011056502 0.047891133 -0.013064462
0.0030237024 0.047702279 -0.013021941
0.0051222029 0.04686914 -0.013103356
0.0070270668 0.047308102 -0.012993975
0.0090555036 0.047085758 -0.01306502
0.010983037 0.046586797 -0.013004971
0.012419083 0.046151131 -0.012901353
-0.01246227 -0.046138011 -0.010923573
-0.011002549 -0.046580873 -0.010970562
-0.0089834305 -0.047097046 -0.011029237
-0.0066824351 -0.047261026 -0.011031335
-0.0050187861 -0.047505841 -0.01106377
-0.0030156989 -0.047703061 -0.010913289
-0.0010192258 -0.047899649 -0.011067201
0.0010104495 -0.047900509 -0.010956953
0.0029910021 -0.047705505 -0.01110485
0.0050427527 -0.04717518 -0.011196963
0.0070154141 -0.047309242 -0.01094728
0.0089867935 -0.04709721 -0.011021584
0.011056323 -0.046564579 -0.010938398
0.012403451 -0.046155866 -0.011139049
-0.01855376 -0.044233944 -0.010941138
-0.017133916 -0.04457137 -0.011073913
-0.015124265 -0.045180682 -0.011089053
-0.013465079 -0.045833781 -0.010940953
0.01395468 -0.045364622 -0.011132069
0.015088315 -0.045341313 -0.011038315
0.017055728 -0.044744436 -0.011088453
0.018748363 -0.043480657 -0.01119046
-0.022361347 -0.042212225 -0.010988137
-0.021081494 -0.042769764 -0.011019711
-0.019545276 -0.043717314 -0.010977295
0.01950716 -0.043737706 -0.011077606
0.020386223 -0.042349309 -0.011061156
0.02238855 -0.042197693 -0.010918885
-0.026249444 -0.040134173 -0.010934514
-0.024840396 -0.040202178 -0.011116852
-0.023406908 -0.04165341 -0.011005059
0.023334553 -0.041692086 -0.010994927
0.0249986 -0.040802713 -0.011110331
0.026301708 -0.040106244 -0.010982329
-0.028215654 -0.037353892 -0.011037532
-0.027203754 -0.039467555 -0.010972378
0.02731229 -0.039257541 -0.011043041
0.028493797 -0.038411696 -0.01092328
-0.030712685 -0.036590584 -0.011000078
-0.029473376 -0.037607715 -0.011016417
-0.010344371 -0.035106167 -0.01101191
-0.0090319021 -0.036778815 -0.010919176
-0.0069499146 -0.037299488 -0.01104554
-0.0050422796 -0.037503459 -0.011066746
-0.003013517 -0.037703246 -0.010897642
-0.0001741064 -0.037119836 -0.011260893
0.0010012573 -0.037901402 -0.011049259
0.0029945534 -0.037705112 -0.011025491
0.004650265 -0.037318245 -0.011029318
0.0070637637 -0.037285537 -0.011041204
0.0090729939 -0.036766343 -0.011009033
0.010403999 -0.036082923 -0.0110688
0.029473064 -0.037607975 -0.011035995
0.030708404 -0.0365941 -0.010996903
-0.032905236 -0.034791086 -0.011046196
-0.03172154 -0.035762578 -0.01088671
-0.016328828 -0.03415212 -0.010890691
-0.014984956 -0.034852602 -0.011021439
-0.012972048 -0.035583336 -0.011044363
-0.011822161 -0.035932228 -0.010824525
0.01117478 -0.036108777 -0.011749325
0.012980823 -0.03558068 -0.010971992
0.01495551 -0.034866676 -0.010854808
0.016314356 -0.034159865 -0.011010595
0.031740516 -0.034682471 -0.01108239
0.032960158 -0.034746014 -0.010994499
-0.0347673 -0.032934215 -0.011096225
-0.033943344 -0.033932813 -0.010901305
-0.018951653 -0.032133885 -0.01152771
-0.018759921 -0.032260828 -0.011127456
-0.017318757 -0.033623107 -0.010981053
0.01737419 -0.033593483 -0.010960682
0.018950827 -0.032750946 -0.010905325
0.017384797 -0.031855226 -0.011145946
0.033944529 -0.033930194 -0.010779634
0.033762977 -0.031871475 -0.011306542
-0.036016118 -0.030357137 -0.011115608
-0.035779066 -0.031701453 -0.011041363
-0.022534378 -0.030428559 -0.011018909
-0.021217436 -0.031465661 -0.010983261
0.021212909 -0.031468555 -0.01110788
0.022008829 -0.029815232 -0.011064905
0.035718177 -0.031775646 -0.01102661
0.036554199 -0.030757021 -0.011034263
-0.038265266 -0.027691249 -0.011253783
-0.037117936 -0.029570695 -0.011172269
-0.024731655 -0.028625093 -0.011115284
-0.02353685 -0.02960575 -0.010974172
0.023501948 -0.029634407 -0.010984811
0.024730375 -0.028626146 -0.011032904
0.037587442 -0.029498072 -0.011077562
0.038437717 -0.028462088 -0.010983481
-0.040138099 -0.026242081 -0.010847306
-0.039496355 -0.027062651 -0.011099277
-0.026876092 -0.026783947 -0.01100619
-0.025745174 -0.027793223 -0.010881691
0.025719894 -0.027813978 -0.010949369
0.026015265 -0.026914146 -0.011072531
0.039399989 -0.027286761 -0.011015096
0.040133595 -0.026250517 -0.010808704
-0.040860742 -0.024889974 -0.011067062
-0.028614355 -0.02474474 -0.010935714
-0.027778544 -0.025763065 -0.01083096
0.027796693 -0.025740955 -0.01099213
0.028591981 -0.024771998 -0.011025659
0.04081415 -0.024977176 -0.011043504
-0.040818777 -0.022118593 -0.01118722
-0.041706711 -0.023291493 -0.011103566
-0.030164663 -0.021808051 -0.011053089
-0.028095108 -0.022481795 -0.011300815
0.029648783 -0.02348442 -0.010935028
0.0304332 -0.022528704 -0.01104078
0.041648213 -0.023416648 -0.0109931
0.042226572 -0.022334501 -0.010923031
-0.042942453 -0.020995071 -0.010952183
-0.032098599 -0.020171514 -0.011042944
-0.031504709 -0.021157674 -0.011085044
0.031487957 -0.021182498 -0.010932167
0.03208695 -0.020193303 -0.010822264
0.042965118 -0.020952657 -0.011013012
-0.044229589 -0.018566025 -0.011023873
-0.043727104 -0.019526985 -0.011121714
-0.032734666 -0.018981239 -0.011025563
0.03276819 -0.018918518 -0.011043997
0.04375843 -0.019468339 -0.011125451
0.044246364 -0.018524988 -0.010947169
-0.044412859 -0.016600367 -0.010952499
-0.034160983 -0.016312255 -0.010901215
-0.033591069 -0.017378708 -0.010948994
0.033084229 -0.016647298 -0.011224472
0.034136906 -0.01635731 -0.011039798
0.044070818 -0.016784353 -0.011029707
-0.044764105 -0.014237522 -0.011084015
-0.034812372 -0.015075797 -0.010999673
0.034324415 -0.01467137 -0.011042588
0.045343637 -0.015080715 -0.010911727
-0.046121836 -0.012515666 -0.011190188
-0.045844939 -0.013428353 -0.010866568
-0.035577759 -0.012990438 -0.011093457
0.035581876 -0.012976852 -0.01098103
0.045828726 -0.013481743 -0.010915763
0.046137776 -0.012463104 -0.011175181
-0.046360765 -0.011206792 -0.011095122
-0.036262296 -0.010734274 -0.010934417
-0.035955124 -0.011746679 -0.011079825
0.03594977 -0.011764337 -0.011018574
0.036232639 -0.010663385 -0.011040192
0.0465803 -0.011004454 -0.01101006
-0.047095861 -0.0089844223 -0.011059048
-0.036786143 -0.0090077147 -0.011072906
0.036194045 -0.0089561837 -0.011071416
0.047098156 -0.0089664171 -0.010994634
-0.046570729 -0.0066947765 -0.011065111
-0.037209366 -0.0065573957 -0.011128095
0.036220837 -0.0066978266 -0.011150637
0.047310937 -0.0069983751 -0.011006554
-0.047503453 -0.0050430591 -0.011011734
-0.037505291 -0.0050236331 -0.010999329
0.037507482 -0.0050013592 -0.010833848
0.046646312 -0.0050930525 -0.011294369
-0.047702383 -0.0030225692 -0.010962437
-0.037706301 -0.0029824807 -0.011066264
0.037155259 -0.0026507596 -0.011153987
0.046607405 -0.0029576435 -0.010995013
-0.047903169 -0.00098343822 -0.011028273
-0.037905086 -0.00096387748 -0.010996992
0.037898175 -0.0010340008 -0.010999925
0.047895711 -0.0010592899 -0.0109587
-0.047897194 0.0010442609 -0.0110418
-0.037910566 0.00090816175 -0.011031909
0.037896622 0.0010497916 -0.010900702
0.047611587 0.0013464267 -0.011086191
-0.047697622 0.0030710474 -0.011002945
-0.037705239 0.0029932384 -0.010975456
0.03770021 0.0030442283 -0.010911817
0.04770669 0.0029788769 -0.010894197
-0.047509085 0.0049857814 -0.01104602
-0.037509989 0.0049758716 -0.011003597
0.037504412 0.0050325277 -0.010976292
0.04750558 0.0050214725 -0.010955312
-0.047312915 0.0069780834 -0.010963858
-0.036893845 0.006611981 -0.011130824
0.037228826 0.0067387656 -0.011123874
0.047312755 0.0069798492 -0.010972738
-0.04662149 0.0085271886 -0.011093304
-0.036780536 0.0090261726 -0.010988933
0.03652535 0.0085851233 -0.011055051
0.046949957 0.00848673 -0.011097325
-0.046035409 0.011262296 -0.010979678
-0.036264867 0.010725803 -0.01102847
-0.036000352 0.011000748 -0.0116057
0.035936784 0.011807151 -0.011234659
0.036258675 0.010746217 -0.010913835
0.046567064 0.011048142 -0.011010227
-0.04614199 0.012449187 -0.0108825
-0.045824483 0.013495693 -0.010993161
-0.035306696 0.012492445 -0.011082319
0.03513936 0.013256902 -0.011135613
0.04584619 0.013424182 -0.011013422
0.046140239 0.012454979 -0.010992876
-0.04536625 0.01500617 -0.010956795
-0.034825508 0.01504079 -0.010968816
0.034851823 0.014994403 -0.011054982
0.045107894 0.01514769 -0.011091682
-0.04475227 0.017029857 -0.010999852
-0.034144528 0.016343039 -0.011005005
-0.033629205 0.017307341 -0.011003682
0.033123698 0.01669516 -0.011040209
0.034164574 0.016305514 -0.011057241
0.044745646 0.017051719 -0.01098229
-0.044252552 0.018517187 -0.011120646
-0.04373882 0.019505056 -0.010991588
-0.032815747 0.01895752 -0.011019257
0.032693464 0.019058358 -0.010954929
0.043693278 0.019590255 -0.010970005
0.044264272 0.018495003 -0.011082908
-0.042928435 0.020841155 -0.010940785
-0.032096978 0.020174537 -0.010943403
-0.031470235 0.02120607 -0.011022875
0.031507939 0.02115708 -0.011092846
0.032106444 0.02015684 -0.010953042
0.042326506 0.02051975 -0.011122698
-0.04218398 0.022414193 -0.010935236
-0.041674417 0.023367601 -0.010982268
-0.029811028 0.022073589 -0.01098999
-0.029209187 0.02287749 -0.011248658
0.029625077 0.023513302 -0.010994205
0.030469952 0.022483932 -0.010892914
0.041504659 0.02348249 -0.0111188
0.042192634 0.022398004 -0.011080752
-0.040776175 0.025048234 -0.01097679
-0.028630562 0.024724996 -0.010990438
-0.027786098 0.025753859 -0.011155238
0.027767042 0.025777072 -0.010879409
0.028568005 0.024801221 -0.011078635
0.040444393 0.024545636 -0.01101174
-0.040127989 0.026260991 -0.011120367
-0.039437845 0.02724055 -0.011044641
-0.026206329 0.02595651 -0.011174289
-0.025746794 0.027791891 -0.010979269
0.025758985 0.027781887 -0.010832243
0.026798911 0.026856754 -0.010999612
0.039394807 0.027293865 -0.010903389
0.040141482 0.026235748 -0.011068845
-0.038371239 0.028543076 -0.010939119
-0.037620764 0.029457483 -0.011133229
-0.024535488 0.028713642 -0.011029654
-0.023483925 0.029649192 -0.0110672
0.023495493 0.029639704 -0.011045706
0.02473001 0.028626449 -0.011012957
0.037053991 0.028311793 -0.011089147
0.037477754 0.028051127 -0.01094232
-0.036594242 0.030708225 -0.010953575
-0.035779715 0.031700663 -0.010998005
-0.022561284 0.030406466 -0.010998008
-0.020638304 0.031071782 -0.01116338
0.021163853 0.031502143 -0.011100317
0.022540761 0.030423308 -0.011145189
0.035789307 0.031688977 -0.010962111
0.036611076 0.030687699 -0.01102289
-0.034757588 0.032946058 -0.010934385
-0.0339403 0.033934247 -0.011401079
-0.020155923 0.032106932 -0.010930561
-0.019044051 0.032701112 -0.011047788
-0.01730332 0.033631362 -0.011009443
0.017327169 0.033618607 -0.010980282
0.019039517 0.032703537 -0.011031672
0.020204248 0.032081105 -0.011160167
0.033920255 0.033954568 -0.011123484
0.034418102 0.032785725 -0.010997172
-0.032545634 0.033973206 -0.011058467
-0.031709678 0.035772324 -0.011060278
-0.016290976 0.034172352 -0.010869793
-0.015124488 0.034784365 -0.010999254
-0.012946937 0.03559095 -0.010941142
-0.011778384 0.035945512 -0.011037018
0.011765088 0.035949536 -0.010953448
0.012843215 0.035622418 -0.011085836
0.014963539 0.034935206 -0.010991723
0.016300652 0.034167182 -0.010782275
0.031728536 0.035756834 -0.01105992
0.032847792 0.034784634 -0.011082032
-0.030669549 0.036625993 -0.01092588
-0.029445319 0.037630744 -0.010897431
-0.010402254 0.035654794 -0.011129982
-0.0093135936 0.036562894 -0.011137478
-0.0069903596 0.037293352 -0.010971316
-0.0049571893 0.037511848 -0.0109811
-0.0029653411 0.037707984 -0.011017956
-0.0010476001 0.037896845 -0.010960102
0.00094669726 0.037906773 -0.010926785
0.0033752995 0.037216693 -0.011063885
0.0049632583 0.037511241 -0.0109456
0.0070466609 0.03728465 -0.010979474
0.0089381486 0.036807261 -0.011013163
0.010721477 0.036266178 -0.011090553
0.029815765 0.036557939 -0.011226626
0.030217448 0.035930213 -0.011108607
-0.028526889 0.038384527 -0.011048052
-0.027209813 0.039463241 -0.011063707
0.027241684 0.039436653 -0.010929042
0.028511705 0.038396984 -0.01093589
-0.026235763 0.040141474 -0.011060664
-0.024686879 0.040271655 -0.011109605
-0.023321532 0.041699041 -0.011031423
0.023358617 0.041679215 -0.010936632
0.024367802 0.040233877 -0.011103245
0.026284164 0.040115613 -0.011067154
-0.022371497 0.042206801 -0.010968948
-0.020594331 0.042445533 -0.01102457
-0.019533468 0.043723632 -0.010929967
0.019463331 0.043761123 -0.010925697
0.020767508 0.042822454 -0.010987473
0.022849957 0.041408855 -0.011059671
-0.018493576 0.044265203 -0.011049785
-0.016722003 0.044579934 -0.011030329
-0.015012783 0.045364223 -0.010949965
-0.013474954 0.04583079 -0.011052759
0.013461299 0.045834929 -0.011076588
0.014998645 0.045368537 -0.010979746
0.017046247 0.044747308 -0.010973854
0.018480618 0.044266801 -0.011095332
-0.012502717 0.046125744 -0.010970762
-0.010828079 0.046611514 -0.011038634
-0.0090517774 0.047086149 -0.010884658
-0.00685175 0.047325354 -0.010899042
-0.0050714486 0.047500666 -0.010989062
-0.0029477607 0.047709767 -0.010998099
-0.00097710383 0.047903795 -0.010986504
0.0010310526 0.047898479 -0.01097977
0.0029664245 0.047707926 -0.011007572
0.0049219211 0.047515374 -0.011023084
0.0070211138 0.047308687 -0.010957078
0.0090164226 0.047092631 -0.011019022
0.011233163 0.046264056 -0.011125658
0.012437697 0.046145476 -0.010931355
-0.012433204 -0.046146844 -0.0091350051
-0.011004868 -0.046580184 -0.0090780519
-0.0089414986 -0.047102444 -0.0091149583
-0.0066152276 -0.047075018 -0.0091899782
-0.0049897181 -0.047508694 -0.008960817
-0.0032187449 -0.0471537 -0.0090135206
-0.0010932786 -0.047886673 -0.0090624746
0.0010216335 -0.04789941 -0.0089820642
0.0029623609 -0.047708321 -0.0089531327
0.0050983741 -0.047498006 -0.0089831287
0.0069310418 -0.047317564 -0.0089813406
0.0089376075 -0.047103442 -0.0090462416
0.010942293 -0.046599157 -0.0089763338
0.012050672 -0.045946389 -0.0092126234
-0.018578876 -0.044225305 -0.0090853823
-0.01699724 -0.044762179 -0.0090686874
-0.014970008 -0.045377214 -0.0090199048
-0.013460165 -0.045835279 -0.0090473536
0.013393029 -0.045855634 -0.0089517096
0.014627132 -0.044822354 -0.0090381317
0.016879395 -0.044059657 -0.0091337189
0.018578121 -0.044224028 -0.0090169655
-0.022375401 -0.042204712 -0.0089801978
-0.020965397 -0.042958308 -0.0091168126
-0.019522922 -0.043729268 -0.009010409
0.019507777 -0.043737356 -0.0091352314
0.020821819 -0.042325173 -0.00902698
0.022417903 -0.042181998 -0.0090190917
-0.024824796 -0.039971821 -0.0093014082
-0.024978004 -0.040762309 -0.0091968086
-0.023328656 -0.041695241 -0.0089463936
0.022767974 -0.041524205 -0.0092465812
0.025145402 -0.040027071 -0.0092870919
0.026688227 -0.039704192 -0.0090903025
-0.028482512 -0.038420949 -0.0090522673
-0.026902352 -0.039388187 -0.0091450857
0.026971083 -0.038785245 -0.009086878
0.028456353 -0.038442433 -0.0089829694
-0.030730663 -0.036575835 -0.0089276787
-0.028976403 -0.036689263 -0.0090579866
-0.010810143 -0.036239281 -0.0089776786
-0.0090356441 -0.036777675 -0.0090781124
-0.0066898228 -0.037006099 -0.009002462
-0.0048993183 -0.037517529 -0.0090009691
-0.0028154845 -0.037131939 -0.0090000415
-0.00091088371 -0.037910301 -0.0089100031
0.00090687705 -0.037330236 -0.0089603001
0.0029726103 -0.037707258 -0.0090047391
0.0049878494 -0.037508819 -0.0090207802
0.0071162782 -0.037275828 -0.0090135019
0.009178306 -0.036193255 -0.0089885043
0.010715862 -0.036267888 -0.0089797964
0.02951913 -0.037570164 -0.0089152418
0.030858696 -0.036470752 -0.0090060253
-0.032966472 -0.034504268 -0.009064409
-0.031755269 -0.035734899 -0.0090704355
-0.016324686 -0.034154337 -0.0091432519
-0.015213781 -0.034798481 -0.0090217292
-0.013222464 -0.035356451 -0.0090962946
-0.010265556 -0.036209531 -0.0097364299
0.011780648 -0.035944819 -0.0091221714
0.013006764 -0.035572801 -0.0090119559
0.014991815 -0.034850102 -0.0089855911
0.01626268 -0.034187473 -0.009050793
0.031701595 -0.035778951 -0.0092958063
0.032875314 -0.034815632 -0.0089783845
-0.034346774 -0.032513548 -0.0090924324
-0.033950381 -0.033923849 -0.0093262056
-0.02015781 -0.032105912 -0.0089544766
-0.018965891 -0.032742869 -0.0090478668
-0.017205626 -0.033683568 -0.0089926962
0.017317275 -0.033623904 -0.0088679241
0.018945688 -0.03275368 -0.0089628184
0.019238407 -0.032344084 -0.0092227953
0.033921756 -0.033952776 -0.0091035003
0.03474766 -0.032958142 -0.0089650052
-0.036603317 -0.030697171 -0.0089889495
-0.035765328 -0.031718194 -0.0089919735
-0.022667335 -0.0300688 -0.0090820165
-0.021174489 -0.031493813 -0.0090341335
0.021161672 -0.031502835 -0.0090336883
0.022537516 -0.030425981 -0.0090054125
0.03578949 -0.031688761 -0.0089335255
0.036576789 -0.030729484 -0.0089439442
-0.038404841 -0.028502151 -0.0091011822
-0.03759018 -0.029494736 -0.0090754442
-0.024729863 -0.028626561 -0.009013949
-0.023537097 -0.029605554 -0.0090176975
0.02350474 -0.029632105 -0.0089405673
0.024765225 -0.028597543 -0.0089759994
0.037545096 -0.028755167 -0.009127344
0.038365241 -0.028550388 -0.0088946801
-0.040147517 -0.026224462 -0.0089745214
-0.039448746 -0.027226109 -0.0090008257
-0.026941251 -0.026683435 -0.0091283405
-0.025759319 -0.027781613 -0.0089068897
0.025749382 -0.027789766 -0.0088882055
0.026796564 -0.026865672 -0.0090284534
0.039409775 -0.027274657 -0.0090653487
0.040104996 -0.026304027 -0.0089793531
-0.04026939 -0.024677243 -0.0092108175
-0.028781813 -0.024388947 -0.0090130186
-0.027758943 -0.025786946 -0.0090628136
0.027773628 -0.025769046 -0.0089909639
0.028057897 -0.024502631 -0.0091115152
0.040227022 -0.024984751 -0.0091350926
-0.042211868 -0.022362011 -0.0090337349
-0.041658755 -0.023396919 -0.0090736328
-0.030428642 -0.02253427 -0.0090487832
-0.029518619 -0.02379935 -0.0090175057
0.029618111 -0.023521805 -0.0089162113
0.030499961 -0.022352597 -0.0089761754
0.041211527 -0.023647195 -0.0090677086
0.042210691 -0.022364225 -0.0089597367
-0.042930905 -0.02101667 -0.0090430966
-0.032098126 -0.020172399 -0.0089854244
-0.031518929 -0.021146744 -0.0089365169
0.031473484 -0.021206882 -0.0089899674
0.032091118 -0.020185517 -0.0090303728
0.042613428 -0.021160655 -0.0090888264
-0.043787386 -0.018774126 -0.0091700247
-0.043726355 -0.019528368 -0.0089890007
-0.032745168 -0.018961595 -0.0089948401
0.032734469 -0.018981628 -0.0090427659
0.043712772 -0.019553799 -0.0089147976
0.044245049 -0.018531773 -0.0091191074
-0.044281296 -0.016845804 -0.0091020949
-0.034165692 -0.016303437 -0.0088948272
-0.033621307 -0.017322132 -0.0089956205
0.033645499 -0.017276848 -0.0090710456
0.03307689 -0.014530714 -0.0093844729
0.044757612 -0.017012248 -0.0090634348
-0.045156367 -0.015176768 -0.0089852931
-0.034821536 -0.015050033 -0.0090506971
0.034842074 -0.015014609 -0.0089820884
0.045397833 -0.014902004 -0.008981958
-0.046131738 -0.012482978 -0.0089807361
-0.045826297 -0.013489787 -0.0089635085
-0.035182606 -0.012837916 -0.0092685828
0.035561964 -0.013042495 -0.0090448819
0.045829732 -0.013478434 -0.0089721419
0.046150289 -0.012421813 -0.0089549953
-0.046572413 -0.011030482 -0.0090353591
-0.035596363 -0.010395554 -0.0092658428
-0.035940327 -0.01179545 -0.0091712121
0.035940349 -0.011795377 -0.0087212995
0.036240842 -0.010804979 -0.0090753157
0.045882724 -0.010820767 -0.0090318276
-0.047087535 -0.0090409247 -0.0090614734
-0.036771677 -0.0090553956 -0.0090467306
0.036648665 -0.0092273364 -0.0090533234
0.047083691 -0.009042508 -0.0089827068
-0.047304094 -0.0070677735 -0.0090332534
-0.037076831 -0.0065155253 -0.0090258643
0.037303302 -0.0069454336 -0.0090324255
0.046681125 -0.0067150206 -0.0091007464
-0.047482818 -0.0051201335 -0.0091378633
-0.03750477 -0.0050289682 -0.0090085696
0.03750544 -0.0050221439 -0.0089862887
0.047509979 -0.0049767531 -0.0090351561
-0.047705945 -0.0029865478 -0.0090508843
-0.037310105 -0.0026519776 -0.0090954192
0.037705775 -0.0029877659 -0.0090851095
0.046351332 -0.0028967131 -0.0091555789
-0.047899935 -0.0010161495 -0.0090277996
-0.037893362 -0.0010828018 -0.0090138977
0.037278228 -0.0011885009 -0.0090632737
0.04772738 -0.00081365649 -0.0091377003
-0.047727998 0.0007832761 -0.0091870492
-0.037900351 0.0010118312 -0.0091021862
0.037907559 0.0009387855 -0.0089503387
0.047899403 0.0010218045 -0.0090271216
-0.047701139 0.0030353786 -0.0089898054
-0.037708998 0.0029551145 -0.0090520494
0.037703827 0.0030074464 -0.0089861546
0.04770283 0.0030181115 -0.0090252152
-0.047508441 0.0049923775 -0.0089853331
-0.036798738 0.0049058259 -0.009106704
0.037515108 0.0049240142 -0.0089224251
0.047502134 0.0050564455 -0.0090383543
-0.046787798 0.0073522134 -0.0092077274
-0.037266906 0.0071000755 -0.00916168
0.03729583 0.0069976416 -0.0090116439
0.047302064 0.007088426 -0.0089398855
-0.046854727 0.0086423466 -0.0090627978
-0.036833066 0.0088531021 -0.0090134563
0.036789317 0.0089972652 -0.0089094704
0.047105998 0.0089264242 -0.0089504933
-0.046589151 0.010975313 -0.0090292329
-0.036300685 0.010459439 -0.0089957435
-0.035950169 0.011763013 -0.0089909229
0.035949253 0.011766035 -0.0090076495
0.036252856 0.010765367 -0.0090663768
0.046597581 0.01094754 -0.0089950087
-0.046135321 0.012471172 -0.0090526175
-0.045850195 0.013410985 -0.009045749
-0.035545927 0.013095347 -0.0089873215
0.0355656 0.013030495 -0.0089726476
0.045833763 0.013465144 -0.0089861164
0.046136077 0.012468682 -0.0090354634
-0.045376576 0.014972134 -0.0090256985
-0.034887675 0.014914892 -0.0089313127
0.034669388 0.015261233 -0.0091745062
0.045235064 0.014825142 -0.009112577
-0.044215128 0.016737409 -0.0091454331
-0.034293279 0.015804289 -0.0092494041
-0.033601217 0.017359708 -0.0089732585
0.03361506 0.017333824 -0.0089648878
0.034172129 0.016291399 -0.0090549681
0.044298954 0.01715083 -0.0091357864
-0.044265456 0.018489428 -0.0089505678
-0.04373892 0.019504867 -0.0091267787
-0.032427005 0.019176554 -0.0090779122
0.032726292 0.018996928 -0.008969266
0.043749377 0.019485306 -0.0089932662
0.044262074 0.018500948 -0.0089753997
-0.042648997 0.020662853 -0.0091030616
-0.032087613 0.020192064 -0.0089644939
-0.031509649 0.021154985 -0.0089335535
0.031483538 0.021197509 -0.0090229502
0.032100972 0.020167066 -0.0092224171
0.042913552 0.021049177 -0.0090285372
-0.042206794 0.022371514 -0.0089776842
-0.041646842 0.023419183 -0.0089235203
-0.030420225 0.022544522 -0.0089694727
-0.029597878 0.023546442 -0.0089822747
0.029584296 0.023562992 -0.0090749022
0.030420383 0.022544341 -0.0090053072
0.041547492 0.022766747 -0.0089439787
0.040679116 0.022124762 -0.0092179039
-0.040319674 0.024784312 -0.0090845777
-0.028582297 0.024783801 -0.0089541441
-0.027784603 0.025755677 -0.0089710951
0.027785569 0.025754506 -0.0090081468
0.028647825 0.024703961 -0.0090818163
0.04079834 0.025006779 -0.0089674797
-0.039769236 0.024591986 -0.0089336177
-0.039368849 0.027325287 -0.0090204757
-0.026403394 0.026334714 -0.0090919435
-0.025727374 0.027807835 -0.0089775985
0.025725525 0.027809359 -0.0089840125
0.026830235 0.026833924 -0.0089994762
0.039431382 0.027248148 -0.0090271477
0.03832379 0.025803786 -0.0092875548
-0.038422376 0.028480787 -0.0088734422
-0.037589207 0.02949594 -0.0089362571
-0.024765056 0.028597673 -0.0090141976
-0.023522753 0.029617319 -0.009096832
0.023539962 0.029603193 -0.0090525439
0.024719849 0.02863477 -0.0089302314
0.037520643 0.029579479 -0.009002056
0.038383182 0.028528523 -0.0091458354
-0.03658013 0.03072542 -0.0090217199
-0.035779059 0.031701472 -0.0090948613
-0.022524649 0.030436544 -0.0090911547
-0.021204509 0.031474829 -0.0089674126
0.021212205 0.031465188 -0.0089995498
0.022585714 0.030386426 -0.0089680543
0.035754845 0.031730976 -0.0090000024
0.036546636 0.03076623 -0.0090914639
-0.034810837 0.032489281 -0.0091860276
-0.033950217 0.033925604 -0.0089211427
-0.020165754 0.032101672 -0.0089713996
-0.018514672 0.032537259 -0.0090948744
-0.016856214 0.033597641 -0.00914039
0.017272532 0.033647813 -0.0089651346
0.019049728 0.032698084 -0.0089689437
0.020178389 0.032094926 -0.008988467
0.033919115 0.033954844 -0.0090310816
0.034349293 0.032779969 -0.0089888098
-0.032883156 0.034809221 -0.0089518856
-0.031703915 0.035777055 -0.0089018187
-0.016327227 0.034152973 -0.0089773191
-0.015032052 0.034830466 -0.0090766158
-0.012961766 0.035576407 -0.0091634914
-0.011802617 0.035938155 -0.0089716827
0.011773475 0.035946995 -0.0087638665
0.012971762 0.035583425 -0.0089937262
0.014995464 0.034848575 -0.0089848265
0.016368186 0.034131091 -0.0089144381
0.031735469 0.035751145 -0.0090292124
0.03296078 0.034745511 -0.0089809541
-0.030736579 0.036570963 -0.0090243034
-0.029496968 0.037588362 -0.0089462055
-0.011005818 0.036229018 -0.0091492422
-0.0090032155 0.036787521 -0.0089632198
-0.0069961324 0.037293009 -0.0089770602
-0.0054475036 0.036130581 -0.0091396281
-0.0025811938 0.037394211 -0.0090833567
-0.0013257208 0.03777713 -0.009032188
0.0010245554 0.03789518 -0.0090362811
0.0029302402 0.037711434 -0.0089080408
0.0050065266 0.037506975 -0.0091088573
0.0072417958 0.036953673 -0.0089727733
0.0090808086 0.036280584 -0.0090055102
0.010621342 0.035637904 -0.0090503907
0.029545521 0.037548512 -0.0090455301
0.030674702 0.036621764 -0.0090351263
-0.028014639 0.038384996 -0.0091491975
-0.026460495 0.038349506 -0.0092954449
0.026801335 0.038437881 -0.0091045769
0.028505286 0.038402259 -0.0089901546
-0.026249254 0.04013427 -0.0090384716
-0.02423187 0.039974432 -0.0092119658
-0.023324791 0.041697294 -0.0090323379
0.023368884 0.041673731 -0.0090494705
0.025016386 0.040793184 -0.0089962939
0.026199739 0.040160742 -0.0090603912
-0.02229923 0.042245436 -0.0088028628
-0.020974239 0.042953596 -0.0090448046
-0.018719213 0.043349918 -0.0090710036
0.019500786 0.043741103 -0.0090271421
0.020989584 0.042945385 -0.0090070143
0.022341415 0.042222876 -0.0090710754
-0.018519443 0.044252947 -0.0090480633
-0.016798351 0.044686835 -0.0090987161
-0.015000118 0.045368079 -0.0090357848
-0.013480738 0.045829032 -0.0088710655
0.013442849 0.045840535 -0.008915795
0.015011215 0.045364711 -0.0089955702
0.017064534 0.044741772 -0.0089605609
0.018512633 0.044255406 -0.009174211
-0.012420001 0.046150859 -0.0089090727
-0.011149758 0.046503492 -0.0090721045
-0.0093421536 0.046647213 -0.0090524321
-0.0068280008 0.047130551 -0.009074308
-0.005091737 0.047404513 -0.0091281952
-0.0029751828 0.047707047 -0.0090003274
-0.00085021154 0.047832984 -0.0089929737
0.00093289086 0.047908146 -0.0090919975
0.0030187604 0.047610722 -0.0089526437
0.0049410397 0.047513496 -0.0090445057
0.0070703086 0.046602365 -0.0089660268
0.0087541267 0.04640865 -0.0090357652
0.010912757 0.045881532 -0.0091369627
0.012495895 0.046127811 -0.0090296809
-0.012449476 -0.046141908 -0.0071015405
-0.010699635 -0.04590774 -0.0071224589
-0.0090847248 -0.047076803 -0.0070250737
-0.0068636984 -0.047324188 -0.0068616816
-0.0050078765 -0.046472028 -0.0073069562
-0.0030058818 -0.047704034 -0.0069743651
-0.0010093071 -0.047900625 -0.0070447773
0.00075550139 -0.046655018 -0.0071891737
0.0030932426 -0.047695432 -0.0070313108
0.0050025801 -0.047507435 -0.0069447714
0.0070116566 -0.047309611 -0.0070360941
0.0091352817 -0.047072917 -0.0070434297
0.010861094 -0.045890339 -0.0069941245
0.012483862 -0.046131477 -0.0069360426
-0.018477879 -0.044267662 -0.007085456
-0.01694187 -0.044778988 -0.0069557298
-0.015063539 -0.045348834 -0.0070824842
-0.012644747 -0.045373399 -0.0072269528
0.013469961 -0.045832314 -0.0070186285
0.014782283 -0.044708449 -0.0070103444
0.016938543 -0.044779975 -0.0069600516
0.018527202 -0.044249248 -0.0070515
-0.022409597 -0.042186443 -0.0069657536
-0.021006947 -0.042934831 -0.007135767
-0.01950643 -0.043738086 -0.0069889235
0.019550996 -0.043514002 -0.0070381225
0.021042522 -0.042917091 -0.0070135426
0.022405723 -0.042188507 -0.0069175297
-0.02623166 -0.04014368 -0.006960616
-0.024977956 -0.040813733 -0.0070095253
-0.023350816 -0.041683391 -0.0070033711
0.023334414 -0.04169216 -0.007006655
0.024502097 -0.040493812 -0.0070187817
0.026224941 -0.040147256 -0.0070464644
-0.028532505 -0.038379923 -0.0070549212
-0.027241452 -0.039436121 -0.0070045702
0.027257329 -0.039424643 -0.0069852639
0.02849979 -0.038406767 -0.0070091304
-0.030751297 -0.036558885 -0.0070861792
-0.029497441 -0.03758797 -0.0070088711
-0.010854097 -0.036225941 -0.0070730494
-0.0090626748 -0.036769472 -0.0069566276
-0.0072338656 -0.036830369 -0.0070985644
-0.0050482834 -0.037502866 -0.0069925427
-0.0029215761 -0.037712295 -0.0070734038
-0.0012960472 -0.037860613 -0.0071017779
0.00085628318 -0.037915669 -0.0069692312
0.0029702098 -0.037707511 -0.0070000463
0.0049359584 -0.03751393 -0.0069369753
0.007035098 -0.037288401 -0.0070541701
0.0088783307 -0.036808219 -0.0072978297
0.010800702 -0.036242131 -0.006877325
0.028746556 -0.037599295 -0.0069912374
0.030400537 -0.035927728 -0.0070572351
-0.032571975 -0.034362804 -0.0070483452
-0.031665884 -0.035808258 -0.0070350771
-0.016305121 -0.034164798 -0.0069564721
-0.015059124 -0.034815274 -0.0070840297
-0.012906997 -0.035599303 -0.0071437191
-0.011804266 -0.035937656 -0.0069997297
0.0097434502 -0.034598697 -0.0076123825
0.012914206 -0.035600882 -0.0069641201
0.014985875 -0.034852952 -0.0069932044
0.016339365 -0.034146491 -0.0069372444
0.031732988 -0.035753191 -0.0070228353
0.032855168 -0.034684617 -0.0070149717
-0.034840647 -0.032844853 -0.0070534735
-0.033950374 -0.03392617 -0.0071659153
-0.020197667 -0.032084625 -0.0069957916
-0.019046098 -0.032700017 -0.0070474437
-0.017248927 -0.033660423 -0.0069670067
0.017332617 -0.033615705 -0.0069209123
0.019212907 -0.032615449 -0.0070530064
0.020189138 -0.032089181 -0.0069356472
0.033927679 -0.03394844 -0.0070813135
0.034715299 -0.03230492 -0.0070848148
-0.036559086 -0.030751051 -0.0070898496
-0.035168141 -0.030422054 -0.0072009312
-0.022553219 -0.030413091 -0.0070434143
-0.021309353 -0.031360485 -0.0071233711
0.02085753 -0.031410657 -0.0069646589
0.022486176 -0.030468119 -0.0070588957
0.035789113 -0.031689215 -0.0069385427
0.036581296 -0.030723995 -0.0069730203
-0.038212761 -0.028645709 -0.007051242
-0.037376478 -0.029516201 -0.0070536179
-0.024757516 -0.028155547 -0.0071014208
-0.023548773 -0.029595971 -0.0069389697
0.023509869 -0.029627902 -0.0069655068
0.024721777 -0.028633194 -0.0070527908
0.037600782 -0.029481832 -0.006869284
0.037276149 -0.027485117 -0.0074173803
-0.040153474 -0.026213335 -0.0071218004
-0.038723193 -0.026968503 -0.0071875551
-0.026802609 -0.026863756 -0.0069071688
-0.025708245 -0.027823534 -0.0068949228
0.025745783 -0.027792728 -0.0070703719
0.026828287 -0.026834946 -0.0069926237
0.039438095 -0.027239827 -0.0070279203
0.040131874 -0.026253738 -0.0068633906
-0.04078057 -0.025039991 -0.0070733624
-0.028620947 -0.024736715 -0.0070084068
-0.027800571 -0.025736224 -0.0069915354
0.027793936 -0.0257443 -0.0070017381
0.02856203 -0.024808485 -0.0071450551
0.040835708 -0.024936846 -0.0069763325
-0.042193718 -0.022395981 -0.0069526932
-0.041696787 -0.023325749 -0.0070864758
-0.030426303 -0.022537125 -0.0069144708
-0.029614622 -0.023526048 -0.0069673844
0.029385941 -0.022558868 -0.0071284422
0.030433655 -0.02252817 -0.006942342
0.041556861 -0.023327282 -0.0070929504
0.040996797 -0.021324776 -0.0070526572
-0.042930283 -0.021017879 -0.0069898148
-0.032106597 -0.020156551 -0.0071603111
-0.031398255 -0.021312229 -0.0070013888
0.031457126 -0.021225199 -0.0069634966
0.03210384 -0.018597785 -0.0074913008
0.042652313 -0.021110483 -0.0070697465
-0.044227369 -0.018567538 -0.0070484472
-0.043646421 -0.019310899 -0.007073821
-0.032553077 -0.018103899 -0.0070526404
0.032672901 -0.019096859 -0.0071060299
0.04374307 -0.019340193 -0.0071346383
0.044247914 -0.018525999 -0.0070878062
-0.044760603 -0.0170024 -0.0070228861
-0.034169354 -0.01629659 -0.0068496088
-0.033650339 -0.017267792 -0.0069411113
0.033411112 -0.016767872 -0.0072200675
0.034181718 -0.016273456 -0.0069457241
0.04475474 -0.01702171 -0.007015123
-0.044702683 -0.014770237 -0.0071436251
-0.034792509 -0.015100637 -0.0070439107
0.03483405 -0.015021365 -0.0070109772
0.045189735 -0.015090783 -0.0071182405
-0.046151362 -0.012418318 -0.0069555179
-0.045389455 -0.013681103 -0.0072427178
-0.03558059 -0.012981107 -0.0068981154
0.035591543 -0.012945049 -0.0070242742
0.045839272 -0.013447009 -0.0070145414
0.046125419 -0.012503822 -0.0069453358
-0.046523724 -0.011121087 -0.0071226321
-0.036231406 -0.010836047 -0.0069371322
-0.035934255 -0.011815472 -0.0070644412
0.035945363 -0.011778854 -0.00693445
0.035200719 -0.011247654 -0.0072012241
0.046586074 -0.010985466 -0.0069611073
-0.047080647 -0.0090676835 -0.0069287042
-0.036779884 -0.0090283845 -0.0070205685
0.036460694 -0.0085687041 -0.0070988121
0.047046889 -0.0088256709 -0.0071255038
-0.047271911 -0.0070792935 -0.0069408575
-0.036686234 -0.0070452993 -0.0070879604
0.037294254 -0.0069633955 -0.0070147738
0.046611376 -0.0071475189 -0.0069910898
-0.04665735 -0.0047943355 -0.007194791
-0.037506219 -0.0050142305 -0.0069588074
0.037386406 -0.0046961824 -0.0071419436
0.047514446 -0.0049313661 -0.0070748911
-0.047673419 -0.0029860234 -0.0071976371
-0.037766743 -0.0031054767 -0.0070454949
0.037706036 -0.0029850469 -0.0069833626
0.047701675 -0.0030299062 -0.0069006127
-0.047805775 -0.0010299269 -0.0070365584
-0.037907165 -0.00094277418 -0.0069374056
0.037911076 -0.00090314518 -0.0069023436
0.047903087 -0.00098423834 -0.0069388468
-0.04733168 0.00069869292 -0.0069969012
-0.037903879 0.00097614829 -0.0069154226
0.037732489 0.00068195927 -0.0070322878
0.046860434 0.0014425531 -0.0070772748
-0.047553401 0.002900766 -0.007214047
-0.037695605 0.0030910354 -0.0070289033
0.037701361 0.0030326401 -0.0069761644
0.04729465 0.0026938249 -0.0070181256
-0.046832785 0.0047749616 -0.0071289078
-0.037498791 0.0050895698 -0.0069899042
0.037442233 0.0046749213 -0.007116294
0.04750926 0.0049842359 -0.0070031038
-0.047299426 0.0071151778 -0.0071330429
-0.037297588 0.0070048212 -0.0069963406
0.037293509 0.0069927508 -0.0070503899
0.047298644 0.0071230652 -0.0070597618
-0.047082502 0.00904347 -0.0069921007
-0.036766015 0.0090740668 -0.0070328326
0.036776915 0.0090381475 -0.0069079516
0.047106851 0.0089034764 -0.0069493288
-0.046584196 0.010991634 -0.007044524
-0.036245253 0.010790426 -0.0070920894
-0.035940416 0.011795171 -0.0070289043
0.035946224 0.011776028 -0.0071354168
0.036235195 0.010823647 -0.0070062838
0.046073597 0.010666416 -0.0071484535
-0.045897543 0.012824162 -0.0070317583
-0.045841351 0.013440127 -0.0069064931
-0.035618279 0.01285689 -0.0069434764
0.035585802 0.012963935 -0.0069571333
0.045841824 0.013438575 -0.0069893398
0.046120677 0.012519439 -0.0069623222
-0.0447287 0.014703838 -0.0071039847
-0.034500413 0.014639817 -0.0071660499
0.034114793 0.014770149 -0.0071019856
0.045359083 0.015029746 -0.0069832588
-0.044763096 0.016994251 -0.0069530783
-0.034158196 0.016317464 -0.0070551704
-0.033620548 0.017323548 -0.0069991415
0.033641174 0.01728495 -0.0070344126
0.034168579 0.016298037 -0.0068850243
0.04452119 0.01714799 -0.0072065173
-0.044251587 0.018518001 -0.0069652917
-0.042905904 0.018672753 -0.0071854345
-0.032746773 0.018958583 -0.0069451211
0.032729242 0.018991413 -0.0070164539
0.043577246 0.018876236 -0.0070955371
0.044259947 0.018500356 -0.0070074736
-0.04295665 0.020968493 -0.0069738743
-0.032104664 0.020160155 -0.0068694856
-0.031169713 0.021146161 -0.0072767767
0.031591207 0.020857697 -0.0070556668
0.032229565 0.020585058 -0.0073673837
0.042886127 0.020711098 -0.0071248054
-0.042195924 0.022391846 -0.0070534563
-0.041063733 0.023507293 -0.0071090693
-0.030431097 0.022531277 -0.0070492225
-0.02962192 0.023517156 -0.0069333436
0.029604357 0.023538543 -0.0069199819
0.028733665 0.022424975 -0.0072358302
0.041696202 0.023260308 -0.0072040004
0.042207159 0.022370834 -0.006923419
-0.040834215 0.024939623 -0.0069450038
-0.028647218 0.024704693 -0.0069211917
-0.027773188 0.025769588 -0.0069143539
0.028097767 0.025014514 -0.0072927899
0.028435523 0.024819108 -0.007164998
0.040834613 0.024938907 -0.0068981559
-0.040134434 0.026248937 -0.0069508585
-0.039339405 0.027361194 -0.0068373461
-0.02683644 0.026820697 -0.0070906118
-0.02574838 0.027790591 -0.0070384592
0.025736097 0.027800674 -0.007078215
0.026854986 0.02681064 -0.0069558448
0.039393261 0.027295785 -0.0069383918
0.040128086 0.026260825 -0.0072255982
-0.038413592 0.028491473 -0.0070588742
-0.037445471 0.029475292 -0.0070645055
-0.024729379 0.028626954 -0.0069499649
-0.02352635 0.029614361 -0.006966392
0.023509149 0.029628498 -0.0070394464
0.024473492 0.028731551 -0.0071004932
0.037197143 0.029626137 -0.0071743936
0.038423717 0.028479148 -0.0069838082
-0.036623456 0.030672632 -0.0070014563
-0.035733439 0.031757046 -0.0070252228
-0.022536205 0.030427044 -0.0069533535
-0.020750783 0.03132112 -0.007041065
0.021199534 0.031475279 -0.0070445244
0.022517944 0.029582124 -0.0071360362
0.035848927 0.031613804 -0.007045649
0.036588807 0.030714843 -0.0070910603
-0.034545489 0.032490626 -0.007141998
-0.033956278 0.03391948 -0.0068711168
-0.020172887 0.032097861 -0.0069104307
-0.018610563 0.032543939 -0.0070790821
-0.016357221 0.032645974 -0.0071259593
0.017281501 0.033643007 -0.0069406037
0.018952705 0.032749929 -0.0069968943
0.020658635 0.029868878 -0.0070877252
0.033921659 0.033954095 -0.0070314156
0.034639005 0.032568634 -0.0071962243
-0.032986809 0.034724146 -0.0069319531
-0.03171552 0.035767522 -0.0071318448
-0.016319187 0.034157272 -0.0069981138
-0.015131927 0.034674019 -0.0070224721
-0.013019741 0.035568874 -0.0070982059
-0.011811342 0.035935506 -0.0070676384
0.011800393 0.035938825 -0.0069439393
0.013109442 0.035064153 -0.0070176055
0.015402451 0.034158424 -0.007198039
0.016380398 0.034124568 -0.0071353838
0.031722911 0.035761461 -0.0069728871
0.032962602 0.034744006 -0.0070302221
-0.030773629 0.035983965 -0.0071387691
-0.029501218 0.037584871 -0.0068727629
-0.010880216 0.036218017 -0.0069599003
-0.0089552104 0.03680208 -0.0070138462
-0.0068559763 0.037301116 -0.0071201725
-0.0050473018 0.037502963 -0.0070686075
-0.0027568336 0.037624031 -0.0071194652
-0.0010407841 0.037897509 -0.0068774219
0.0010085413 0.037900671 -0.0070378738
0.0028185979 0.037691738 -0.0070847468
0.0046047373 0.037294906 -0.0070112091
0.0070075914 0.037290517 -0.0069611222
0.0089556165 0.036801957 -0.0070125456
0.010791185 0.036245029 -0.0070113693
0.029519994 0.03756946 -0.0069826702
0.030681396 0.036616266 -0.006960718
-0.027673183 0.037858337 -0.0071690837
-0.026757363 0.039162606 -0.0070748525
0.027238848 0.039439224 -0.0069570141
0.028532745 0.038379729 -0.0070112832
-0.026265694 0.040125474 -0.0068460647
-0.025030708 0.04078554 -0.007004831
-0.023401942 0.041656055 -0.0069928099
0.023302762 0.041709084 -0.0069859228
0.025012486 0.040795285 -0.0070743463
0.026228204 0.040145524 -0.0068616513
-0.022364669 0.042210449 -0.0070434501
-0.020829992 0.042373311 -0.0070244512
-0.0195178 0.043732017 -0.0070664003
0.019545021 0.043717463 -0.0068860031
0.021045079 0.042915713 -0.0070367358
0.021524319 0.042234633 -0.0072104642
-0.018565213 0.04408098 -0.0072354875
-0.016958348 0.044773966 -0.0069374405
-0.015012677 0.045364268 -0.0069976994
-0.013416993 0.045848373 -0.0070378496
0.012662956 0.045002673 -0.0072266827
