# .PCD v0.7 - Point Cloud Data file format
VERSION 0.7
FIELDS x y z
SIZE 4 4 4
TYPE F F F
COUNT 1 1 1
WIDTH 1244
HEIGHT 1
VIEWPOINT 0 0 0 1 0 0 0
POINTS 1244
DATA ascii
-0.044539656 -0.031511486 -0.013182159
-0.042993777 -0.032000013 -0.012932657
-0.041029803 -0.032000016 -0.01288972
-0.038167834 -0.031993978 -0.013216227
-0.037038479 -0.032000005 -0.013073629
-0.034960371 -0.032000009 -0.012988969
-0.033027675 -0.032000005 -0.013023996
-0.031023636 -0.032000013 -0.013039985
-0.0289736 -0.032000005 -0.012961942
-0.0269312 -0.032000002 -0.013062418
-0.024561055 -0.031730462 -0.013200411
-0.023052096 -0.032000005 -0.012966
-0.02111874 -0.031457644 -0.013058967
-0.019020433 -0.032000013 -0.01295548
-0.016916895 -0.032000002 -0.012925532
-0.0150284 -0.032000002 -0.012941973
-0.012951225 -0.031530749 -0.013140595
-0.011316983 -0.031494301 -0.013276786
-0.0093891295 -0.031663336 -0.013243381
-0.0069888495 -0.032000009 -0.013016835
-0.0049626576 -0.032000002 -0.013042403
-0.0030629698 -0.032000002 -0.013027364
-0.0010401409 -0.032000002 -0.013044327
0.0010494143 -0.032000009 -0.012946334
0.0030030548 -0.032000009 -0.013018337
0.0050151106 -0.032000002 -0.012928446
0.0070919245 -0.032000005 -0.01300199
0.009039809 -0.032000002 -0.012996552
0.011019427 -0.032000005 -0.013115526
0.013044694 -0.032000002 -0.012904645
0.015036385 -0.032000005 -0.013024471
0.016541375 -0.031854618 -0.013210516
0.019064149 -0.032000002 -0.012986412
0.020975951 -0.032000016 -0.01288172
0.022944584 -0.031833027 -0.013132399
0.024942687 -0.032000002 -0.013047051
0.026822915 -0.031449735 -0.013512058
0.028997704 -0.032000005 -0.0129676
0.03095901 -0.032000005 -0.01314362
0.033100642 -0.032000013 -0.013047728
0.034742225 -0.031529061 -0.013164201
0.037073288 -0.032000002 -0.01302911
0.038775582 -0.031384554 -0.013145334
0.040936761 -0.032000002 -0.013016963
0.043103334 -0.032000016 -0.012969187
0.044248581 -0.031693466 -0.013231658
0.046912201 -0.032000005 -0.01290505
0.04897223 -0.032000009 -0.013071189
0.05101214 -0.032000005 -0.013093019
0.052486628 -0.031424753 -0.013193102
0.054919418 -0.031399768 -0.013213801
0.055918775 -0.031602025 -0.013171663
0.058975808 -0.031301491 -0.013089531
0.057750989 -0.029086897 -0.013213617
-0.059999954 -0.028960479 -0.013061146
0.058680195 -0.028287312 -0.013400566
0.060000006 -0.029247385 -0.012891962
-0.05999995 -0.026841475 -0.013083287
0.057948302 -0.025884448 -0.013138442
0.059999995 -0.027151711 -0.013091255
-0.05999995 -0.024979793 -0.012876526
0.05999995 -0.024879228 -0.01302251
0.057418421 -0.025557479 -0.013804022
-0.059999954 -0.022887776 -0.013001657
0.059999954 -0.022962419 -0.01300546
0.059999987 -0.022866851 -0.012863632
-0.059999954 -0.021055512 -0.012975805
0.059826486 -0.021024765 -0.013177766
0.059999987 -0.02091822 -0.012990758
-0.059016086 -0.018588498 -0.013090788
0.05999995 -0.019015331 -0.012999746
0.059999987 -0.019061904 -0.012804334
-0.059999954 -0.017033551 -0.012994368
0.059813909 -0.016624367 -0.013178539
0.059999995 -0.017261175 -0.012937839
-0.059838939 -0.014533079 -0.013248375
0.059999954 -0.015056534 -0.013004592
0.05999998 -0.014928363 -0.012973191
-0.059722371 -0.013117719 -0.013214596
0.059999954 -0.012876969 -0.012947055
0.059999973 -0.013140178 -0.012997106
-0.05999995 -0.010967503 -0.01298139
0.057465639 -0.011181409 -0.013440855
0.059999969 -0.011198293 -0.012990024
-0.059999954 -0.0090361042 -0.013068425
0.058053758 -0.009334919 -0.013262953
0.059999969 -0.0089834807 -0.013061809
-0.059999954 -0.0070634 -0.013025825
0.059999958 -0.0070459344 -0.013011462
0.059999965 -0.0070189289 -0.013161607
-0.05999995 -0.0050649815 -0.012985625
0.059740398 -0.0044682235 -0.013365994
0.059999976 -0.0052347709 -0.013006533
-0.059044108 -0.0027392169 -0.013054892
0.059999958 -0.0030463648 -0.013024992
0.059999973 -0.0029621411 -0.012865531
-0.058770936 -0.00054647122 -0.013273155
0.059999954 -0.00093671004 -0.012898779
0.059999976 -0.0008232015 -0.01293811
-0.059999954 0.0011034382 -0.012913201
0.059550438 0.00054775464 -0.013061599
0.05999998 0.0013086859 -0.012963164
-0.059999954 0.0029231806 -0.013006727
0.058758982 0.0022095398 -0.013367179
0.059867062 0.0037421172 -0.013135049
-0.05999995 0.0050740656 -0.012987866
0.059999958 0.005072182 -0.012997366
0.059999984 0.0050595268 -0.012932658
-0.058813035 0.0072221421 -0.013091024
0.059999965 0.0070592253 -0.013007043
0.059999969 0.0070064664 -0.012969409
-0.059290528 0.0091556963 -0.013219346
0.059999961 0.0091069173 -0.012910311
0.059999965 0.0090313293 -0.012991155
-0.059999954 0.011021486 -0.012998883
0.059999954 0.010939972 -0.012915532
0.059999965 0.010969756 -0.012983083
-0.059999954 0.012981267 -0.013065591
0.059999961 0.013040349 -0.013097851
0.059999973 0.013019951 -0.012943346
-0.058896329 0.015191141 -0.012998623
0.059999965 0.015006394 -0.013060476
0.059999965 0.015071004 -0.012908135
-0.058981933 0.016777713 -0.013127532
0.059999958 0.016973862 -0.013048959
0.059999973 0.017047787 -0.012992323
-0.059485212 0.018956801 -0.013068028
0.059999958 0.018897535 -0.01297763
0.059999969 0.019107813 -0.013154174
-0.059016343 0.02092663 -0.013069182
0.059999958 0.021015501 -0.012935922
0.05999998 0.021147283 -0.01295151
-0.05999995 0.022962213 -0.013100581
0.059999954 0.022936909 -0.013031763
0.059999973 0.02291264 -0.012851737
-0.059999954 0.025026951 -0.013041875
0.059999958 0.025020579 -0.012992132
0.059999969 0.025138419 -0.012909355
-0.058867093 0.026949562 -0.013349774
0.059999954 0.027064268 -0.013030054
0.059999976 0.026889091 -0.013019162
-0.059999954 0.029007863 -0.012853536
0.059999958 0.029016025 -0.01290931
0.059999973 0.028850712 -0.012860135
-0.059160125 0.030610809 -0.013228443
-0.057290025 0.032000002 -0.013009788
-0.055018973 0.032000002 -0.012908326
-0.053009473 0.031999998 -0.012622841
-0.05037326 0.031999998 -0.013054658
-0.049557067 0.031999998 -0.012891077
-0.046160113 0.031999998 -0.013522372
-0.04435144 0.031999998 -0.013028273
-0.043435715 0.031999998 -0.013230874
-0.040806931 0.031999998 -0.013133738
-0.039598551 0.031999998 -0.013810633
-0.034739561 0.031999998 -0.01332492
-0.028747985 0.031999998 -0.013894133
-0.026991826 0.031999998 -0.013595311
-0.025297055 0.031999998 -0.012271312
0.017545657 0.031999998 -0.013384661
0.018832626 0.032000005 -0.01269794
0.020909771 0.032000002 -0.013152546
0.023335591 0.032000002 -0.012524744
0.025047069 0.032000002 -0.013306575
0.027195847 0.032000002 -0.013311701
0.029251697 0.032000002 -0.012485619
0.030536054 0.032000002 -0.012544826
0.032979745 0.032000002 -0.012948165
0.035513185 0.031999998 -0.012638921
0.037166987 0.032000002 -0.012678991
0.038642596 0.032000002 -0.012601678
0.041288525 0.031999998 -0.012805266
0.043098539 0.031999998 -0.013151033
0.047680445 0.031999998 -0.012156063
0.048428968 0.031999998 -0.012596946
0.051900037 0.031999998 -0.012192711
0.056786302 0.031999998 -0.013647188
0.058479529 0.031151325 -0.012893684
0.05999998 0.030965107 -0.013218949
-0.058967043 0.032000005 -0.012953106
-0.057061527 0.032000016 -0.012969147
-0.054499775 0.031989433 -0.013133581
-0.052989941 0.031705432 -0.013043462
-0.050924577 0.032000005 -0.01302907
-0.049050745 0.031892661 -0.013290468
-0.046982966 0.032000009 -0.01290234
-0.044808295 0.031718038 -0.013125286
-0.042075183 0.031546306 -0.01314105
-0.04125471 0.031703513 -0.01316576
-0.038306758 0.031531744 -0.013246841
-0.036985219 0.032000024 -0.012945348
-0.034914188 0.032000013 -0.012986189
-0.033034902 0.032000009 -0.013012206
-0.029528365 0.031100774 -0.01315232
-0.029016795 0.032000009 -0.012871612
-0.027251223 0.031730991 -0.013282286
-0.024969822 0.032000013 -0.012951508
-0.023300277 0.032000013 -0.013144039
-0.020306543 0.031346943 -0.013122583
-0.019027025 0.032000005 -0.013022928
-0.01658356 0.032000002 -0.01305148
-0.014133955 0.031187342 -0.013200372
-0.013024839 0.032000016 -0.012936214
-0.010811274 0.030999608 -0.013292996
-0.0089362869 0.032000016 -0.013034176
-0.0066075888 0.031501833 -0.01300764
-0.0049736612 0.032000005 -0.012966238
-0.0027413114 0.031633575 -0.013164542
-0.0008714312 0.032000013 -0.013058436
0.00093422201 0.032000002 -0.012937283
0.0029683122 0.032000005 -0.013086773
0.0049927668 0.032000002 -0.013001098
0.0070604254 0.032000016 -0.013074083
0.009226636 0.032000013 -0.012975295
0.011026711 0.032000005 -0.013002508
0.013151971 0.032000009 -0.013022523
0.015367419 0.031846993 -0.013122128
0.01707175 0.032000009 -0.012975938
0.019023636 0.032000005 -0.012937023
0.021008421 0.032000009 -0.012965439
0.022967229 0.032000005 -0.013055856
0.025073977 0.032000005 -0.012964968
0.027108053 0.031247059 -0.013117273
0.028536854 0.031329598 -0.013472661
0.031019375 0.032000005 -0.012975198
0.033029776 0.032000002 -0.013027608
0.03503114 0.03200002 -0.012981391
0.03698938 0.032000009 -0.012961303
0.039085351 0.032000002 -0.013015265
0.040940195 0.032000016 -0.01292081
0.042065687 0.031344343 -0.013283075
0.04434165 0.031311829 -0.013112084
0.047008816 0.032000009 -0.012977106
0.0487612 0.032000013 -0.013014463
0.049526434 0.03074206 -0.013243732
0.053010382 0.032000005 -0.013003043
0.05501489 0.03172515 -0.01308829
0.05699132 0.032000005 -0.012938417
0.057600286 0.03105803 -0.01323428
-0.020290256 -0.032000005 -0.010036461
-0.018638613 -0.032000005 -0.010342671
-0.016924862 -0.032000005 -0.01063012
-0.014817255 -0.032000005 -0.010980248
-0.0131631 -0.032000005 -0.011288788
-0.011255665 -0.032000005 -0.010767628
-0.0093403347 -0.032000005 -0.011079171
-0.0067091673 -0.032000005 -0.010949492
-0.0051399809 -0.032000005 -0.010888774
-0.0028172887 -0.032000005 -0.011116706
-0.00082797633 -0.032000005 -0.010620738
0.00089365279 -0.032000005 -0.011179993
0.0032701162 -0.032000005 -0.011277722
0.0049622743 -0.032000005 -0.011184509
0.0069822255 -0.032000005 -0.010942829
0.00897705 -0.032000005 -0.010951534
0.010993008 -0.032000005 -0.010955428
0.013115593 -0.032000005 -0.011129088
0.01491385 -0.032000005 -0.011263036
0.017040126 -0.032000005 -0.011299619
0.018987797 -0.032000005 -0.010693215
0.021163933 -0.032000005 -0.010836382
0.022741154 -0.032000005 -0.011630932
0.025106473 -0.032000005 -0.011106771
0.027046584 -0.032000005 -0.011338162
0.029229805 -0.032000005 -0.010813765
0.031768642 -0.032000005 -0.011003385
0.032573603 -0.032000005 -0.010944174
0.035147276 -0.032000005 -0.010808734
0.039233863 -0.026970604 -0.011288333
0.038933121 -0.032000005 -0.010929193
0.041110478 -0.032000005 -0.01086508
0.042839624 -0.032000005 -0.011108989
0.044832766 -0.032000005 -0.011225781
0.047260765 -0.032000005 -0.010476463
0.0485362 -0.032000005 -0.010985244
0.051191818 -0.032000005 -0.011008756
0.053001069 -0.032000005 -0.010970872
0.054998264 -0.032000005 -0.01067364
0.056903485 -0.032000005 -0.011027128
0.059048068 -0.032000005 -0.011192534
-0.059466433 -0.031523775 -0.010972551
-0.056984305 -0.032000013 -0.011037821
-0.054263048 -0.031390488 -0.011191293
-0.053052172 -0.032000005 -0.011011305
-0.050941754 -0.032000009 -0.011011676
-0.048990488 -0.032000013 -0.01110526
-0.046939991 -0.032000002 -0.011090287
-0.044969045 -0.032000013 -0.011027813
-0.043088529 -0.032000005 -0.011070352
-0.041211106 -0.031623777 -0.011115009
-0.038859773 -0.032000013 -0.010971176
-0.03713676 -0.031412855 -0.011189039
-0.034236167 -0.031644069 -0.011259791
-0.032958131 -0.032000013 -0.010960417
-0.030101731 -0.031122036 -0.011342811
-0.028984236 -0.032000013 -0.010933963
-0.0270335 -0.032000002 -0.010927338
-0.024998205 -0.032000009 -0.01100174
-0.023029841 -0.032000013 -0.011016618
-0.021477386 -0.031869341 -0.011174997
-0.019026883 -0.032000009 -0.01103737
-0.017114908 -0.032000005 -0.011074089
-0.014988908 -0.032000013 -0.010871877
-0.012925899 -0.032000009 -0.010980265
-0.011039575 -0.031999998 -0.011095541
-0.0089651886 -0.032000002 -0.010982163
-0.0069933883 -0.032000013 -0.011083944
-0.0050455597 -0.032000009 -0.011030585
-0.0029649038 -0.031999994 -0.011046085
-0.00096174993 -0.032000013 -0.010994283
0.0016183009 -0.031740241 -0.010982739
0.0029660449 -0.032000009 -0.01099016
0.0049029337 -0.032000002 -0.011039125
0.0069374279 -0.031248868 -0.011219236
0.0086406292 -0.031220578 -0.011172645
0.011049987 -0.032000009 -0.011019614
0.012962531 -0.032000002 -0.011025856
0.01414006 -0.031322502 -0.011073804
0.016977426 -0.032000016 -0.011016674
0.018993538 -0.032000002 -0.011027868
0.020887706 -0.03200002 -0.010990269
0.022971971 -0.032000005 -0.010917749
0.02497077 -0.032000009 -0.011019855
0.026935989 -0.032000009 -0.011047595
0.029009081 -0.031912763 -0.011146015
0.031039726 -0.031793643 -0.01126626
0.03168935 -0.03144829 -0.011297871
0.034250818 -0.031319149 -0.011046465
0.037045062 -0.032000005 -0.01096393
0.039086193 -0.031363439 -0.011067335
0.041013848 -0.032000013 -0.011060718
0.043003466 -0.032000009 -0.011113341
0.04495541 -0.031999998 -0.010991111
0.046914309 -0.032000013 -0.010909413
0.049019881 -0.032000005 -0.0110694
0.050323285 -0.032000005 -0.011248994
0.052979298 -0.031999998 -0.010902644
0.054162651 -0.031256292 -0.011209256
0.057111762 -0.031999994 -0.010926551
0.058628589 -0.031619597 -0.011093057
0.059999969 -0.030790098 -0.011178667
-0.059913505 -0.028909279 -0.011070069
0.059999954 -0.028999684 -0.011033854
0.05999998 -0.029011235 -0.010940617
-0.059999954 -0.027054917 -0.011043944
0.059999954 -0.026908454 -0.010985726
0.059999987 -0.026949445 -0.010795143
-0.059999954 -0.025059853 -0.011015533
0.059999954 -0.024931392 -0.010873534
0.049282335 -0.016812284 -0.011493925
-0.05999995 -0.02298882 -0.01105151
0.058736909 -0.023133066 -0.011122107
0.059999987 -0.022731474 -0.010931573
-0.059999954 -0.020937895 -0.010984705
0.05999995 -0.021080732 -0.011083615
0.059999984 -0.021109056 -0.010932173
-0.059661012 -0.018620221 -0.011326452
0.059999958 -0.018941479 -0.011002347
0.059999987 -0.019162046 -0.010927636
-0.059999954 -0.01701434 -0.011025003
0.059487902 -0.017230326 -0.011292337
0.05999998 -0.016993403 -0.010833447
-0.059999958 -0.014973635 -0.011032648
0.059999954 -0.015005898 -0.011088777
0.059999976 -0.015089969 -0.01102331
-0.059541672 -0.013042582 -0.011045648
0.059999954 -0.013069245 -0.011145798
0.059999984 -0.012746241 -0.011027869
-0.059999954 -0.011017097 -0.011046445
0.059999958 -0.011038034 -0.011027785
0.05999998 -0.010965222 -0.0109773
-0.059999958 -0.0088686841 -0.011001245
0.05999995 -0.0089884875 -0.011073221
0.059999973 -0.0090557383 -0.01096388
-0.05999995 -0.0069475244 -0.010931793
0.059999958 -0.0070477528 -0.011060712
0.05999998 -0.0069283433 -0.011260482
-0.059999954 -0.0050272765 -0.010994591
0.059999954 -0.0049816589 -0.011155408
0.059347358 -0.0039713415 -0.011620875
-0.059353605 -0.0027582867 -0.011171173
0.059999958 -0.0029169032 -0.010972391
0.059235506 -0.0019391027 -0.011453661
-0.059975073 -0.00085631065 -0.011117956
0.059999958 -0.00097391353 -0.010885617
0.05999998 -0.0011982636 -0.010925156
-0.059999954 0.00099539664 -0.011070685
0.059999954 0.00094300194 -0.011096819
0.05999998 0.0010082558 -0.01106259
-0.059916999 0.0032901312 -0.01115859
0.059999958 0.0029041916 -0.010964658
0.059999965 0.0029505533 -0.011162604
-0.05999995 0.0051370459 -0.010951173
0.059999954 0.0050317221 -0.011078032
0.059999969 0.0050606448 -0.011051239
-0.059008785 0.0072646374 -0.011186484
0.059999958 0.0069852979 -0.011069156
0.05999998 0.0070132017 -0.011001081
-0.05999995 0.0089766802 -0.011013479
0.059999954 0.0089071058 -0.010961699
0.059999973 0.0088920034 -0.010820807
-0.059999954 0.011053382 -0.011119556
0.059999954 0.011019195 -0.011083326
0.056434087 0.010383685 -0.01186951
-0.05999995 0.012990417 -0.011032077
0.059999958 0.012947617 -0.01098117
0.059999961 0.012924776 -0.010967073
-0.059834789 0.014964413 -0.011270205
0.059619579 0.015225709 -0.011029911
0.059999965 0.014975716 -0.010930149
-0.059999954 0.017034901 -0.010947126
0.05999995 0.017104061 -0.010950055
0.05999998 0.016926251 -0.011085846
-0.059953809 0.01912206 -0.011088113
0.059999954 0.019006886 -0.010882746
0.059999965 0.019035267 -0.01085933
-0.05999995 0.021025185 -0.011009916
0.059999954 0.02095543 -0.011093548
0.058853056 0.021271521 -0.011274662
-0.059999954 0.02293773 -0.011077744
0.059999958 0.022993814 -0.01098859
0.059999965 0.023115581 -0.011036847
-0.05918989 0.024792287 -0.01119345
0.059999954 0.024822099 -0.011020967
0.059999969 0.025016593 -0.010929692
-0.05999995 0.026935117 -0.011035742
0.059999954 0.026999 -0.010948442
0.059999965 0.027072281 -0.010877708
-0.059812021 0.028561847 -0.011176125
0.058532257 0.028917901 -0.011219077
0.059999969 0.028911207 -0.011074525
-0.059944209 0.031038456 -0.010976758
-0.056714542 0.032000002 -0.011017717
-0.055003926 0.032000005 -0.01109335
-0.053770326 0.031999998 -0.010951071
-0.050589021 0.032000002 -0.010940498
-0.048940822 0.031999998 -0.010765682
-0.04724519 0.032000002 -0.010684648
-0.042896446 0.031999998 -0.010898378
-0.040471531 0.031999998 -0.01048523
-0.039542466 0.031999998 -0.011152186
-0.03510721 0.031999998 -0.011952229
-0.032855257 0.031999998 -0.010764414
-0.030057382 0.031999998 -0.011047347
-0.025525775 0.031999998 -0.010627415
-0.022976317 0.031999998 -0.011289828
-0.021174556 0.031999998 -0.010461478
-0.018187936 0.031999998 -0.010135002
0.019372921 0.032000002 -0.011572536
0.020889869 0.032000005 -0.010667759
0.023020141 0.032000002 -0.011314953
0.024764894 0.032000005 -0.01095726
0.02705786 0.032000002 -0.011496771
0.028380087 0.031999998 -0.01120127
0.030919172 0.032000002 -0.011384162
0.03289767 0.032000002 -0.011249341
0.03492175 0.032000002 -0.011249851
0.036750641 0.032000002 -0.010726747
0.038896658 0.032000002 -0.010931188
0.041410565 0.031999998 -0.010900548
0.042418998 0.031999998 -0.011176477
0.045737624 0.031999998 -0.011099797
0.047060341 0.031999998 -0.011670227
0.048954614 0.031999998 -0.011355328
0.051702082 0.031999998 -0.011038525
0.052679475 0.031999998 -0.011289285
0.059917159 0.03108884 -0.011002998
0.059999984 0.031043738 -0.010852294
-0.058927711 0.032000013 -0.010948757
-0.056174677 0.031181445 -0.011397733
-0.054589663 0.031990059 -0.011146684
-0.052763104 0.031612944 -0.011333112
-0.050441649 0.031608265 -0.011168399
-0.047844913 0.031478174 -0.011008772
-0.047081903 0.032000009 -0.010990978
-0.044631146 0.03200002 -0.011030449
-0.043050721 0.03200002 -0.011005678
-0.040166885 0.031429499 -0.011165507
-0.03897142 0.031326324 -0.010959165
-0.037040222 0.031901937 -0.011123654
-0.035006322 0.032000013 -0.011079317
-0.03251458 0.03132632 -0.011000022
-0.031142445 0.032000013 -0.010942267
-0.029054668 0.032000005 -0.011045255
-0.026989991 0.032000016 -0.011024145
-0.024970807 0.032000002 -0.011065092
-0.022975674 0.032000013 -0.011043403
-0.021021027 0.032000002 -0.010934901
-0.017842473 0.031438027 -0.011434327
-0.016988549 0.032000009 -0.010950737
-0.014958752 0.032000009 -0.010982102
-0.01298666 0.032000009 -0.010922526
-0.010619611 0.031430867 -0.011296096
-0.009003466 0.032000005 -0.010887155
-0.007035133 0.032000013 -0.011012823
-0.0049379524 0.032000016 -0.010958278
-0.002914882 0.032000016 -0.011066705
-0.0010747216 0.032000002 -0.011020341
0.0018138653 0.03161329 -0.01119045
0.0029736161 0.032000002 -0.011007861
0.0053029084 0.031366099 -0.011028931
0.0069454717 0.032000013 -0.011114242
0.0090078106 0.03200002 -0.011041028
0.010908216 0.032000013 -0.011029975
0.013033938 0.032000005 -0.01108375
0.015179187 0.030433139 -0.011544778
0.016926924 0.031999998 -0.011034159
0.018957257 0.032000005 -0.010918682
0.020686664 0.031489253 -0.011401983
0.023080731 0.031311832 -0.011075861
0.024750909 0.032000013 -0.01100156
0.026992485 0.032000005 -0.010960236
0.029034641 0.032000013 -0.01106126
0.030426389 0.031443492 -0.01109729
0.033003259 0.032000005 -0.011033692
0.035023946 0.032000005 -0.010980386
0.036952119 0.032000013 -0.011014876
0.038581323 0.031702738 -0.011186991
0.04090748 0.032000013 -0.011061536
0.0429486 0.032000005 -0.010993915
0.045070499 0.032000002 -0.010980006
0.047041524 0.032000013 -0.010997473
0.049093783 0.032000013 -0.010933064
0.051053315 0.032000009 -0.010990961
0.052290436 0.031807106 -0.011155878
0.05485924 0.032000013 -0.011040597
0.057002783 0.032000002 -0.010896336
0.05869662 0.03126606 -0.011175828
-0.026767619 -0.032000005 -0.0083696749
-0.02517972 -0.032000005 -0.008409041
-0.022843137 -0.032000005 -0.0090572163
-0.020963741 -0.032000005 -0.0094357813
-0.019071216 -0.032000005 -0.008502895
-0.017029485 -0.032000005 -0.0089808442
-0.014926355 -0.032000005 -0.009310022
-0.013024201 -0.032000005 -0.0088232011
-0.010836761 -0.032000005 -0.0086236447
4.9020164e-05 -0.032000005 -0.018167909
-0.0070127267 -0.032000005 -0.0087458743
-0.0050555379 -0.032000005 -0.0089947674
-0.0032657736 -0.032000005 -0.0089046154
-0.0010960603 -0.032000005 -0.0087424796
0.00081913662 -0.032000005 -0.00919344
0.0027875556 -0.032000005 -0.0091079548
0.0046060123 -0.032000005 -0.0093531711
0.0067733349 -0.032000005 -0.0089444909
0.012686628 -0.028082917 -0.010166033
0.011120098 -0.032000005 -0.009022681
0.012969671 -0.032000005 -0.0093185138
0.015025812 -0.032000005 -0.0087944632
0.0078443419 -0.031902149 -0.009190049
0.019043462 -0.032000005 -0.0090860846
0.021509141 -0.032000005 -0.0089175217
0.023123357 -0.032000005 -0.0089158826
0.024979915 -0.032000005 -0.0088548455
0.027029345 -0.032000005 -0.0093170637
0.029097846 -0.032000005 -0.0092571769
0.031275354 -0.032000005 -0.0083879065
0.033168692 -0.032000005 -0.0087402659
0.034681324 -0.032000005 -0.0089151245
0.036885243 -0.032000005 -0.0089869862
0.03907666 -0.032000005 -0.0089465817
0.040916596 -0.032000005 -0.0094032465
0.042831816 -0.032000005 -0.0091405893
0.044714481 -0.032000005 -0.0095062954
0.047003672 -0.032000005 -0.0091433022
0.048998673 -0.032000005 -0.009112088
0.050910581 -0.032000005 -0.0089698778
0.052868694 -0.032000005 -0.0092660487
0.054629549 -0.032000005 -0.0087034497
0.057293933 -0.032000005 -0.0087607242
0.058614414 -0.032000005 -0.0091791488
-0.059449952 -0.031513289 -0.0090059172
-0.057008747 -0.032000016 -0.0090059182
-0.055109411 -0.032000005 -0.0089915134
-0.053046327 -0.031999994 -0.0090094386
-0.050963558 -0.032000009 -0.0089603318
-0.049045321 -0.032000016 -0.0090193376
-0.047015898 -0.032000002 -0.0090354756
-0.044944264 -0.032000005 -0.0089695398
-0.0429326 -0.032000002 -0.0089928526
-0.04120636 -0.031366345 -0.0091964751
-0.038929004 -0.031999998 -0.0089366892
-0.03641431 -0.032000002 -0.008954864
-0.035015896 -0.032000013 -0.0089676911
-0.033037294 -0.032000013 -0.0089715747
-0.031111056 -0.031788498 -0.0092312936
-0.02873686 -0.031998668 -0.0091034919
-0.027376801 -0.031861387 -0.0092881918
-0.025008732 -0.032000009 -0.0091099283
-0.022921344 -0.032000002 -0.0091256518
-0.020348687 -0.031999998 -0.0089803003
-0.019020891 -0.032000002 -0.0090807304
-0.016996525 -0.032000013 -0.0089826342
-0.014973021 -0.032000002 -0.0090020336
-0.013462889 -0.031646434 -0.0092086447
-0.011061175 -0.032000002 -0.0091416873
-0.0090433368 -0.032000005 -0.0090193534
-0.0069447029 -0.032000005 -0.0090465285
-0.0053621526 -0.031969432 -0.0093439799
-0.0038308164 -0.031305328 -0.0094864406
-0.00058883691 -0.031414501 -0.0091909766
0.00094374927 -0.031999998 -0.0089616785
0.0030402301 -0.031999998 -0.0089809122
0.0050125308 -0.032000005 -0.0089942729
0.0071163122 -0.031202773 -0.0093804551
0.0088908384 -0.032000005 -0.0089670476
0.011076912 -0.032000005 -0.0090182573
0.01292214 -0.032000013 -0.0090582455
0.015044286 -0.032000002 -0.0089346571
0.017005382 -0.032000013 -0.0089876642
0.019175308 -0.03151305 -0.0092101572
0.020994417 -0.032000002 -0.0090071317
0.022844819 -0.03158392 -0.0091465721
0.02501004 -0.031999998 -0.0090584615
0.027007161 -0.032000005 -0.0089691989
0.029005898 -0.032000013 -0.0089132963
0.031080173 -0.032000013 -0.0089855855
0.032963432 -0.032000009 -0.0088935858
0.03505614 -0.032000013 -0.0089806169
0.035958335 -0.03182853 -0.0090117492
0.038962029 -0.032000002 -0.0090218848
0.040908094 -0.032000013 -0.0090090455
0.043010253 -0.032000002 -0.0090465276
0.045120105 -0.031199992 -0.0090002846
0.047070038 -0.031999998 -0.0090070432
0.049048621 -0.032000016 -0.0089575863
0.050928302 -0.032000009 -0.0089793345
0.05303378 -0.031999998 -0.0089091295
0.054935262 -0.03199999 -0.0090576336
0.055966474 -0.031911377 -0.0091995252
0.059379626 -0.031496082 -0.0089829694
0.059999973 -0.030312551 -0.0092760837
-0.058315292 -0.02840215 -0.0095214769
0.059999958 -0.028932497 -0.0089190891
0.05999998 -0.028823456 -0.0091247493
-0.059081614 -0.026834883 -0.0092997886
0.059999958 -0.02707606 -0.0089692697
0.059999973 -0.026767757 -0.0090652471
-0.059999954 -0.024965076 -0.0090346206
0.059999958 -0.024920484 -0.008930984
0.05999998 -0.025242487 -0.0090966029
-0.058553003 -0.022579249 -0.0092866458
0.059999954 -0.023076082 -0.0091168592
0.054313235 -0.019596022 -0.010300202
-0.059386682 -0.020111134 -0.0092157256
0.05999995 -0.021064216 -0.0091024227
0.060000002 -0.021111833 -0.0092077088
-0.058441516 -0.018810162 -0.0090472652
0.059999954 -0.019075118 -0.0090778358
0.05999998 -0.018738745 -0.0091997329
-0.057455823 -0.016717575 -0.0090775136
0.059999954 -0.016995303 -0.0090500703
0.05999998 -0.017141411 -0.0091786897
-0.057952967 -0.014184077 -0.0093261795
0.059999958 -0.014978036 -0.0089232288
0.05999998 -0.014859363 -0.0089909108
-0.059418734 -0.012931922 -0.0092309909
0.059999961 -0.012892171 -0.0088632917
0.059999969 -0.01313972 -0.0091524031
-0.059999954 -0.010960433 -0.0089362254
0.059999954 -0.01099718 -0.0090377349
0.059999984 -0.010866228 -0.0090601668
-0.059999947 -0.0088954242 -0.0090575041
0.059999954 -0.00896795 -0.0089631248
0.059078369 -0.0085607283 -0.0094662011
-0.059999954 -0.0070418431 -0.0089969281
0.059999961 -0.0070308475 -0.0091089783
0.059999973 -0.0071589355 -0.0090208985
-0.05999995 -0.0049676578 -0.0089564463
0.059999958 -0.0050187199 -0.0090879397
0.059999969 -0.0049400344 -0.0089996997
-0.059999954 -0.0030627167 -0.0089745577
0.059999954 -0.0029997146 -0.0090816831
0.059999965 -0.0030056727 -0.0089228759
-0.059999954 -0.00090323912 -0.0090681473
0.059999954 -0.00097777846 -0.0090403249
0.059999973 -0.0009771816 -0.0090964735
-0.059999954 0.00095104391 -0.0091120275
0.059999958 0.00099293585 -0.008909503
0.059999973 0.0010008496 -0.0088918712
-0.059999954 0.0031063654 -0.0089874817
0.059999958 0.0029851943 -0.0090254275
0.059999969 0.0032378361 -0.0088745393
-0.059145194 0.0049105007 -0.0093395319
0.059999958 0.004980763 -0.009057872
0.059999973 0.0049130581 -0.0087529169
-0.05999995 0.0070000202 -0.0089837182
0.059999954 0.0070157005 -0.0088906847
0.05999998 0.0070243329 -0.0091303429
-0.05999995 0.0091132587 -0.0090314317
0.059999954 0.0090145301 -0.0090911482
0.059999961 0.008930359 -0.0090724071
-0.05977001 0.010825951 -0.0091757365
0.059637103 0.011215374 -0.0092384061
0.059999965 0.010775251 -0.0089461925
-0.059999954 0.013029981 -0.0090374034
0.059841841 0.012407337 -0.0089181289
0.059999973 0.013090458 -0.00908997
-0.059999954 0.014976797 -0.0090400595
0.059999958 0.014978004 -0.008967041
0.059999969 0.014954063 -0.0091785556
-0.059999954 0.016965322 -0.0088941939
0.059999958 0.016941084 -0.0088472841
0.059999973 0.016741598 -0.0089389924
-0.05999995 0.018994913 -0.0090138791
0.059999954 0.019016972 -0.0090425881
0.059999973 0.019142507 -0.0089387875
-0.058775462 0.020957036 -0.009136619
0.059999958 0.021028398 -0.0089419382
0.059999984 0.021037454 -0.0089104362
-0.05999995 0.023075726 -0.0089895474
0.059999958 0.022973632 -0.0090066986
0.059999965 0.023069566 -0.0089909472
-0.059999954 0.024982614 -0.0090883411
0.059999958 0.024972748 -0.0090372516
0.059977546 0.024178928 -0.0095246509
-0.058775462 0.026951186 -0.0090951063
0.059999954 0.026756302 -0.009328098
0.059999969 0.02701878 -0.0087917363
-0.05999995 0.028922239 -0.0089542046
0.059999958 0.029025992 -0.009034995
0.059999973 0.028919419 -0.0089798877
-0.059945591 0.030989924 -0.0089369938
-0.057037987 0.032000002 -0.0089326752
-0.055176694 0.032000002 -0.0085387491
-0.052830365 0.032000002 -0.0090641174
-0.051269028 0.031999998 -0.0090615908
-0.048836298 0.032000002 -0.0092494059
-0.046717215 0.032000005 -0.009488049
-0.045006059 0.032000002 -0.0084816189
-0.043296866 0.032000002 -0.0088171158
-0.041123644 0.031999998 -0.0085811894
-0.038370833 0.031999998 -0.0082865302
-0.036517121 0.031999998 -0.009250693
-0.034903541 0.031999998 -0.0080270004
-0.032310262 0.031999998 -0.0089433808
-0.03068069 0.031999998 -0.0093566403
-0.029475026 0.031999998 -0.0081807291
-0.025254831 0.031999998 -0.0085805822
-0.023151597 0.031999998 -0.009207136
-0.019644003 0.031999998 -0.0095390519
-0.014970979 0.031999998 -0.0083371988
0.021249136 0.032000002 -0.0094109206
0.02296338 0.032000002 -0.0087772058
0.024999315 0.032000002 -0.009148105
0.026876569 0.031999998 -0.0082070185
0.029020419 0.032000002 -0.0091601629
0.031186104 0.032000002 -0.0093417391
0.033020191 0.032000002 -0.0090632215
0.035138365 0.032000002 -0.0090966271
0.03692174 0.032000002 -0.0092981644
0.03917231 0.032000005 -0.009259888
0.040678378 0.031999998 -0.008744441
0.042722043 0.031999998 -0.0092321364
0.044333387 0.031999998 -0.0081828013
0.047319397 0.031999998 -0.009127493
0.049061023 0.031999998 -0.0084971525
0.050054066 0.031999998 -0.008496589
0.052930079 0.031999998 -0.0082899854
0.059968386 0.031140301 -0.0090746647
0.059999973 0.031115374 -0.0088683497
-0.057230838 0.031644464 -0.0092047481
-0.056034643 0.031508975 -0.0092154462
-0.054999925 0.032000013 -0.009017502
-0.052957892 0.032000005 -0.0089915898
-0.050852697 0.031663779 -0.0092512453
-0.048403535 0.031624019 -0.0093210544
-0.04696038 0.032000013 -0.0090735303
-0.044736672 0.031238094 -0.0092234965
-0.04294141 0.032000013 -0.0089274244
-0.040951144 0.032000009 -0.0090472866
-0.039014731 0.032000009 -0.0090446128
-0.036951549 0.032000009 -0.0089237774
-0.034986131 0.032000002 -0.0091144498
-0.033048049 0.032000016 -0.0090123946
-0.030969631 0.032000002 -0.0090527926
-0.028988646 0.032000002 -0.0091270562
-0.027066458 0.032000005 -0.0090864403
-0.025301751 0.031615149 -0.0090225153
-0.023034563 0.032000002 -0.0089259716
-0.020986358 0.032000005 -0.0090510547
-0.019177103 0.032000013 -0.0091883503
-0.016887642 0.032000005 -0.0090209767
-0.014508202 0.032000013 -0.0090733431
-0.0124152 0.031513661 -0.0089766793
-0.010891017 0.031360004 -0.0090705976
-0.0082699303 0.031572655 -0.0090322597
-0.0070037139 0.032000009 -0.0088992594
-0.0049406835 0.032000005 -0.0089567043
-0.0026049716 0.031288888 -0.0092511708
-0.0019843064 0.031490106 -0.0093225427
0.0009595158 0.032000013 -0.0089040538
0.0029818737 0.032000002 -0.0090332041
0.0051001725 0.032000013 -0.0089325821
0.0063653481 0.031644486 -0.0091284905
0.0089801513 0.032000016 -0.0090370346
0.011446897 0.031749815 -0.0093229879
0.013012148 0.032000005 -0.0090837022
0.014844517 0.031390488 -0.0091437791
0.016470568 0.031971622 -0.0092878966
0.019004636 0.032000005 -0.0090421448
0.02102365 0.032000002 -0.0089803869
0.023066735 0.032000005 -0.0089804688
0.025265446 0.032000013 -0.0091566741
0.027006052 0.032000024 -0.0090716165
0.028969262 0.032000005 -0.0091193607
0.030993422 0.032000013 -0.0089879129
0.032641731 0.03140742 -0.009116319
0.034235865 0.031970568 -0.0093181608
0.036828406 0.032000002 -0.0091772182
0.03907587 0.032000013 -0.0090375133
0.040906396 0.031718653 -0.0091951312
0.042743281 0.031384625 -0.0091568427
0.044641387 0.031428587 -0.0091763856
0.046997137 0.032000013 -0.0090865828
0.04905659 0.032000002 -0.0089798002
0.050857671 0.031999733 -0.0089365114
0.053034421 0.032000016 -0.0089816991
0.054835439 0.031550333 -0.0091065103
0.057003506 0.032000005 -0.0090514859
0.05903209 0.032000013 -0.0090863463
-0.057469785 -0.032000005 -0.0077869496
-0.034446895 -0.032000005 -0.0063491459
-0.032715328 -0.032000005 -0.006807297
-0.031106539 -0.032000005 -0.0067636971
-0.029192623 -0.032000005 -0.0069053234
-0.026908532 -0.032000005 -0.0068330611
-0.024899548 -0.032000005 -0.0069783786
-0.022590563 -0.032000005 -0.0066117723
-0.020876369 -0.032000005 -0.0073325052
-0.01974065 -0.032000005 -0.0077970652
-0.016887005 -0.032000005 -0.0075487504
-0.015031857 -0.032000005 -0.0067268126
-0.013203968 -0.032000005 -0.0071535134
-0.010869456 -0.032000005 -0.0071611488
-0.0094532752 -0.032000005 -0.0073294863
-0.0071649626 -0.032000005 -0.0068290755
-0.005471949 -0.032000005 -0.0068664826
-0.0030363265 -0.032000005 -0.0072851987
-0.0012504118 -0.032000005 -0.0074416371
0.0011002802 -0.032000005 -0.0071026296
0.0031551372 -0.032000005 -0.0070991754
0.0051263599 -0.032000005 -0.0072984737
0.007200106 -0.032000005 -0.0069547989
0.0091311904 -0.032000005 -0.0072236187
0.010958723 -0.032000005 -0.0068070479
0.012973455 -0.032000005 -0.0066393134
0.01865351 -0.028551294 -0.0094458451
0.017439477 -0.032000005 -0.0065214667
0.019050179 -0.032000005 -0.0072240373
0.021086682 -0.032000005 -0.0069369301
0.023085242 -0.032000005 -0.0069922535
0.024802027 -0.032000005 -0.0071093077
0.027436024 -0.032000005 -0.006643489
0.028823251 -0.032000005 -0.0070458981
0.031100625 -0.032000005 -0.006871108
0.033082787 -0.032000005 -0.0066065779
0.034930047 -0.032000005 -0.007020812
0.037099622 -0.032000005 -0.0068578692
0.038684987 -0.032000005 -0.0069005331
0.04097968 -0.032000005 -0.0070244637
0.042990837 -0.032000005 -0.0069999783
0.044933598 -0.032000005 -0.007518691
0.04682079 -0.032000005 -0.0071432586
0.041960143 -0.025286147 -0.010812553
0.051249858 -0.032000005 -0.0068396246
0.053122208 -0.032000005 -0.0071925307
0.055340655 -0.032000005 -0.0069083385
0.056818526 -0.032000005 -0.0068168729
0.059211474 -0.032000005 -0.0070787105
-0.059423998 -0.031604465 -0.0069257733
-0.057000205 -0.032000013 -0.0068549463
-0.055081658 -0.032000016 -0.0070240758
-0.052312732 -0.031446733 -0.0073674894
-0.05100023 -0.032000013 -0.0070259245
-0.048994016 -0.032000013 -0.0069567072
-0.046968706 -0.032000005 -0.0069360971
-0.045070626 -0.032000002 -0.0069841524
-0.04295427 -0.032000013 -0.0068811947
-0.040218908 -0.032000013 -0.0071545453
-0.03868131 -0.031660456 -0.0072106337
-0.03573066 -0.031703752 -0.007312634
-0.03478903 -0.031915098 -0.0071391789
-0.033094734 -0.03199999 -0.0070627308
-0.031198386 -0.031533673 -0.0070127887
-0.029064698 -0.032000013 -0.0070098196
-0.027044863 -0.032000002 -0.0070335441
-0.024260534 -0.032000016 -0.0069821686
-0.022748427 -0.031378649 -0.0072006406
-0.020969681 -0.031999998 -0.0069332067
-0.019065524 -0.032000009 -0.0071064821
-0.017158872 -0.031219505 -0.0073291496
-0.01450391 -0.031900749 -0.007326684
-0.012182247 -0.031968169 -0.0071071116
-0.011106575 -0.031999987 -0.0071080304
-0.0084305257 -0.031810511 -0.0070387074
-0.0068635275 -0.032000002 -0.0070336103
-0.0050224508 -0.032000002 -0.0069380966
-0.0028708235 -0.032000013 -0.0069898749
-0.00099506672 -0.032000013 -0.0070688818
0.00095312385 -0.032000005 -0.0071374201
0.0029998161 -0.031435601 -0.0072539141
0.0054303906 -0.03140742 -0.0072121629
0.00703438 -0.031999998 -0.0070414827
0.0084415302 -0.031950984 -0.0070719589
0.010979476 -0.031999998 -0.0070364294
0.013411232 -0.031663686 -0.0072301817
0.015090193 -0.032000013 -0.0069705346
0.017058449 -0.031891562 -0.0071698925
0.019114934 -0.03199999 -0.0070487326
0.021003924 -0.03199999 -0.0070001767
0.022526368 -0.031500369 -0.0074250014
0.025307972 -0.031643938 -0.0071377545
0.026449103 -0.031319149 -0.0071014226
0.028977333 -0.031999998 -0.0069375047
0.030540882 -0.030825298 -0.0071376534
0.033062037 -0.032000002 -0.0070522022
0.034476668 -0.031766366 -0.0073083271
0.035990801 -0.031744264 -0.0072446605
0.039106824 -0.031999987 -0.0070012538
0.04096318 -0.032000002 -0.006981065
0.042988125 -0.031999994 -0.007114877
0.044105835 -0.031456124 -0.0073259771
0.046983276 -0.032000002 -0.0070059653
0.049094401 -0.03199999 -0.0070351856
0.050971482 -0.032000002 -0.0070028924
0.051413786 -0.03136491 -0.0074164337
0.053880785 -0.031470738 -0.0071454588
0.056911342 -0.031618308 -0.007028664
0.059419185 -0.031531967 -0.0070865154
0.059999995 -0.031102043 -0.0068853116
-0.058880143 -0.028498651 -0.0072701965
0.059999958 -0.029063847 -0.0069682477
0.058280051 -0.029203419 -0.0070213848
-0.05999995 -0.027026854 -0.0069722654
0.059999954 -0.026970018 -0.0069485107
0.059999973 -0.026950808 -0.0069236481
-0.05999995 -0.024982993 -0.0071230601
0.059251539 -0.025136162 -0.0071451659
0.05999998 -0.02496705 -0.0069177439
-0.059999954 -0.022974081 -0.0069584129
0.059999961 -0.023123974 -0.0069618216
0.059999987 -0.022904567 -0.007119433
-0.059999954 -0.020941207 -0.0070101945
0.059999954 -0.020934841 -0.0070188865
0.059999973 -0.021081464 -0.0068904436
-0.059534304 -0.019167816 -0.0069145877
0.05999995 -0.019077415 -0.007017998
0.060000002 -0.019086607 -0.0069720251
-0.059999954 -0.01695885 -0.0068453564
0.059999954 -0.016883623 -0.0069316234
0.059999987 -0.017061908 -0.0070065646
-0.059999954 -0.015016026 -0.0071168919
0.059999958 -0.015111122 -0.0068885516
0.059999973 -0.014699162 -0.0068042949
-0.05999995 -0.01298507 -0.0070351115
0.059999954 -0.012922873 -0.0069935583
0.059999965 -0.01310171 -0.0071269567
-0.059369788 -0.01101575 -0.0072879149
0.058397181 -0.010490874 -0.0073155849
0.05999998 -0.011043185 -0.0069478634
-0.058662105 -0.0092741381 -0.0073615075
0.058412876 -0.0091182273 -0.0072150948
0.059999987 -0.0088493545 -0.0071250941
-0.059993006 -0.0066283168 -0.0072523374
0.059999954 -0.006866443 -0.007243271
0.059999976 -0.0070203235 -0.0071628764
-0.059999954 -0.0048894589 -0.0069536879
0.058309816 -0.0048992438 -0.0071696504
0.059999973 -0.0050965045 -0.0070137982
-0.05890904 -0.0031333384 -0.0071081719
0.05999995 -0.0030477825 -0.0069745639
0.059999973 -0.0029874977 -0.0068903752
-0.059074607 -0.0013220648 -0.0071341633
0.058837239 -0.00135824 -0.0073051183
0.059999976 -0.00097866426 -0.0072628506
-0.05999995 0.00096938055 -0.0070389076
0.059999958 0.00089545228 -0.0070273173
0.060000002 0.0012226764 -0.0072924448
-0.059999954 0.0030407631 -0.0070282491
0.059999958 0.003008635 -0.0069867489
0.059999969 0.0030392117 -0.0069737476
-0.059018906 0.0047357096 -0.0069946833
0.059999954 0.0050986055 -0.0070575196
0.059999973 0.0049790763 -0.0069040642
-0.05999995 0.0070353756 -0.0069445255
0.059999954 0.0073008118 -0.0072170277
0.059999969 0.0069716061 -0.0070748087
-0.05999995 0.0089741005 -0.0069021946
0.058403656 0.0085206116 -0.0074350634
0.059999969 0.0091072349 -0.0069092731
-0.05999995 0.010922599 -0.0070683919
0.059999958 0.011015706 -0.0070129447
0.05999998 0.011002908 -0.006923446
-0.059999954 0.012936327 -0.0069493894
0.058413282 0.012225266 -0.0075350832
0.059999973 0.01300352 -0.0070574065
-0.059212219 0.014917922 -0.0072464473
0.059999954 0.015117203 -0.0070399302
0.05999998 0.014705759 -0.0067495266
-0.059999954 0.016982088 -0.0070371125
0.059999954 0.016982948 -0.0070079356
0.059999995 0.017275142 -0.0071609849
-0.05999995 0.019033153 -0.0070650261
0.059999954 0.018919816 -0.0069624842
0.059999973 0.019093834 -0.0071548843
-0.059999954 0.02110444 -0.0070401174
0.0598187 0.02051878 -0.00717927
0.059999969 0.020992974 -0.0070095966
-0.05999995 0.023010243 -0.0069359788
0.059999961 0.023123365 -0.0070133386
0.059999965 0.022929944 -0.0071128733
-0.05999995 0.024981629 -0.0070150928
0.058124959 0.024319656 -0.0070762653
0.05999998 0.025066325 -0.0070621506
-0.05999995 0.027060531 -0.0068251216
0.059999965 0.027159676 -0.0070020249
0.059999973 0.026907841 -0.0071161934
-0.05952784 0.028744899 -0.007221913
0.059999954 0.029117756 -0.0070565399
0.059999976 0.029092725 -0.006849851
-0.059265338 0.031106466 -0.0070316838
-0.056938544 0.032000002 -0.0068414891
-0.055048287 0.032000002 -0.0070928703
-0.052934282 0.032000002 -0.0065568294
-0.050303217 0.031999998 -0.0064645675
-0.049057934 0.032000002 -0.0068043065
-0.047144499 0.032000002 -0.0070343567
-0.04523509 0.032000002 -0.0068049328
-0.043208279 0.031999998 -0.0069243424
-0.040671874 0.032000002 -0.0072275423
-0.03910242 0.032000002 -0.0064561134
-0.037030332 0.031999998 -0.0065368945
-0.034510646 0.031999998 -0.0068661766
-0.033168316 0.031999998 -0.0067889979
-0.030442603 0.031999998 -0.0060218135
-0.028637057 0.031999998 -0.0071900031
-0.025153108 0.031999998 -0.0060263863
-0.014301211 0.031999998 -0.0069915089
-0.012922101 0.031999998 -0.0066383332
0.022938544 0.031999998 -0.0077457651
0.025285555 0.032000002 -0.0069618383
0.02695098 0.032000002 -0.0071080518
0.028829187 0.032000002 -0.0068383035
0.030796571 0.032000002 -0.0068869907
0.033034034 0.032000002 -0.0070346054
0.035260893 0.032000002 -0.007196378
0.03756278 0.032000002 -0.0066028251
0.038900964 0.031999998 -0.0066017415
0.040941045 0.032000002 -0.0066464194
0.042637605 0.031999998 -0.0074512037
0.048033707 0.031999998 -0.0063815303
0.050743233 0.031999998 -0.0064492589
0.059990127 0.031025732 -0.0070052803
0.05999998 0.030885268 -0.0070070922
-0.057291359 0.031203741 -0.0071578249
-0.056311004 0.031280901 -0.0070452322
-0.055008717 0.032000013 -0.0071594911
-0.051708207 0.031725451 -0.0070119398
-0.049643978 0.031474456 -0.0071596615
-0.048989277 0.032000013 -0.0069697299
-0.046951272 0.032000013 -0.0070406036
-0.044991247 0.032000013 -0.0068847896
-0.04215955 0.031619415 -0.0072301775
-0.040967003 0.032000009 -0.0070088357
-0.038396768 0.031953663 -0.0073194876
-0.037055861 0.032000009 -0.0070685502
-0.034952071 0.032000005 -0.0070419433
-0.033192247 0.032000016 -0.007103242
-0.031054297 0.032000002 -0.007054925
-0.02931851 0.031823833 -0.0071882298
-0.027240034 0.031438459 -0.0072276858
-0.024946937 0.032000005 -0.0069835805
-0.022670671 0.03149749 -0.0070312684
-0.020572271 0.031953331 -0.0072445478
-0.018291859 0.031408381 -0.0072444482
-0.016725371 0.031428587 -0.0071115955
-0.014739841 0.032000009 -0.0070094885
-0.013013617 0.03200002 -0.007072214
-0.010740811 0.031312469 -0.0072650039
-0.0089772409 0.032000013 -0.0070390385
-0.0065650009 0.031543512 -0.0072029377
-0.0050809076 0.032000013 -0.0070935357
-0.0029907033 0.030903758 -0.0073139658
-0.00069788063 0.032000005 -0.0071581155
0.001015435 0.032000005 -0.0069800313
0.0037709493 0.031521678 -0.0073672016
0.0054773851 0.031829443 -0.0071645095
0.0073131439 0.031412855 -0.007145334
0.008963828 0.032000013 -0.0069482597
0.010907351 0.032000009 -0.006939129
0.012821025 0.031781286 -0.0071134167
0.01502637 0.032000013 -0.0068998635
0.016949939 0.032000013 -0.0069405888
0.018660804 0.031889562 -0.0071998397
0.021483839 0.031728577 -0.0075555625
0.023315566 0.031948343 -0.0073245373
0.025012381 0.032000009 -0.0070542772
0.027008608 0.03200002 -0.007024392
0.028997438 0.032000005 -0.0070056436
0.030974008 0.032000002 -0.0070127244
0.032974448 0.032000002 -0.0071050534
0.035005622 0.032000013 -0.0070129521
0.036778074 0.031636309 -0.0073126424
0.038979445 0.032000013 -0.0070062401
0.040972203 0.032000016 -0.0069961217
0.043074656 0.031313598 -0.0070750108
0.044920478 0.032000013 -0.0069364142
0.046947192 0.032000013 -0.0069907494
0.048954155 0.032000005 -0.0069575738
0.050764631 0.031353541 -0.0071582696
0.053036299 0.032000005 -0.0069838595
0.054901879 0.032000002 -0.0070158327
0.055897538 0.031274945 -0.0072155348
0.058959659 0.032000016 -0.0069935918
-0.042307846 -0.032000005 -0.0043587233
-0.041002698 -0.032000005 -0.0046447311
-0.038638428 -0.032000005 -0.0047625671
-0.037015915 -0.032000005 -0.0047749961
-0.035034049 -0.032000005 -0.0049867341
-0.032986179 -0.032000005 -0.0053313966
-0.031601917 -0.032000005 -0.0049382891
-0.028942376 -0.032000005 -0.0048146881
-0.026477095 -0.032000005 -0.0049985861
-0.024829982 -0.032000005 -0.005061646
-0.02286399 -0.032000005 -0.0047451253
-0.020870727 -0.032000005 -0.005312534
-0.019186255 -0.032000005 -0.0048854533
-0.017039867 -0.032000005 -0.0046174023
-0.015111998 -0.032000005 -0.0047188499
-0.013150636 -0.032000005 -0.0049342248
-0.011341418 -0.032000005 -0.004838435
-0.0038143457 -0.019200003 -0.0055520213
-0.0077390419 -0.032000005 -0.0050360276
-0.0053484766 -0.032000005 -0.004794837
-0.0011010403 -0.032000005 -0.004709302
0.0010614139 -0.032000005 -0.0048337607
0.0028388761 -0.032000005 -0.0040768748
0.005291725 -0.032000005 -0.0050753104
0.0069096116 -0.032000005 -0.0049292445
0.0091805356 -0.032000005 -0.0050008385
0.010879178 -0.032000005 -0.0049830317
0.013498875 -0.032000005 -0.005288213
0.014968097 -0.032000005 -0.0053886054
0.017052399 -0.032000005 -0.0054092463
0.0192018 -0.032000005 -0.0051251566
0.021498721 -0.032000005 -0.0046601905
0.023265965 -0.032000005 -0.0050913626
0.024567001 -0.032000005 -0.004818161
0.026577517 -0.032000005 -0.0054479404
0.029568508 -0.032000005 -0.0050125616
0.03075619 -0.032000005 -0.0053651147
0.03305506 -0.032000005 -0.0049999962
0.03519509 -0.032000005 -0.0050217146
0.036918726 -0.032000005 -0.0050368779
0.038943674 -0.032000005 -0.0050506014
0.041359182 -0.032000005 -0.0049538682
0.043210834 -0.032000005 -0.0047618621
0.045329977 -0.032000005 -0.0053304671
0.047656517 -0.031264625 -0.0068714926
0.049159959 -0.032000005 -0.0050082291
0.040169653 -0.024000004 -0.007522733
0.053135689 -0.032000005 -0.0048854519
0.055052243 -0.032000005 -0.0051903781
0.057229128 -0.032000005 -0.0049174298
0.059608854 -0.032000005 -0.0050311885
-0.059084378 -0.031422671 -0.005187558
-0.057066157 -0.031999998 -0.0051217154
-0.054749943 -0.031884521 -0.0052441512
-0.051341273 -0.031200279 -0.0054534893
-0.050948154 -0.031999998 -0.0049741571
-0.048950844 -0.032000013 -0.004918742
-0.047093131 -0.03171429 -0.0051986412
-0.045095127 -0.032000002 -0.0049392995
-0.043071426 -0.03162016 -0.0052123335
-0.041154914 -0.032000005 -0.0049978443
-0.038933977 -0.032000002 -0.0050328355
-0.036942348 -0.032000002 -0.0050280984
-0.03503523 -0.032000005 -0.0050206198
-0.03302158 -0.032000002 -0.0050375587
-0.030695874 -0.031711962 -0.0051661972
-0.028950986 -0.031604972 -0.0052164351
-0.027015988 -0.032000005 -0.0050209472
-0.024970919 -0.032000005 -0.0049758549
-0.022362512 -0.031696565 -0.0055346391
-0.020182371 -0.031862829 -0.0053326604
-0.01870919 -0.031556148 -0.0053142821
-0.016998228 -0.031999994 -0.0050458866
-0.014982733 -0.032000013 -0.004977766
-0.012634922 -0.031534296 -0.0052052834
-0.010997695 -0.032000005 -0.0050067697
-0.0089451252 -0.032000009 -0.0049837348
-0.0071436921 -0.031656858 -0.0052162185
-0.0051683262 -0.031993039 -0.0052236845
-0.0029081292 -0.032000005 -0.0049571916
-0.0009038772 -0.03140929 -0.0053003398
0.00092432625 -0.032000013 -0.0049746293
0.003003337 -0.032000009 -0.0049108663
0.004537798 -0.031401269 -0.0052449573
0.0069982065 -0.032000002 -0.0050041801
0.0082976148 -0.031562176 -0.0051798164
0.010620031 -0.031328563 -0.0052220039
0.013046305 -0.031999998 -0.0049817874
0.014536049 -0.031998415 -0.0050925799
0.017033894 -0.032000013 -0.0049942643
0.017830482 -0.030133186 -0.0053562331
0.020967808 -0.032000005 -0.0050726454
0.022993272 -0.031999994 -0.004925645
0.024983449 -0.031353541 -0.0052039796
0.02691507 -0.032000005 -0.0050291815
0.029379778 -0.03165951 -0.0052483547
0.030916257 -0.031999994 -0.0049872892
0.033038862 -0.032000009 -0.0049873958
0.035114069 -0.031999998 -0.0050241598
0.037057813 -0.032000002 -0.0050282027
0.039033469 -0.032000002 -0.0049258536
0.040237851 -0.03142754 -0.0053488216
0.043071996 -0.032000005 -0.0048970939
0.044192839 -0.031575274 -0.0053397664
0.046558134 -0.031769697 -0.0053337058
0.048089687 -0.031435259 -0.0052026929
0.050919127 -0.032000013 -0.0050616143
0.052921325 -0.032000009 -0.0049617095
0.054978941 -0.032000009 -0.0049809334
0.056695383 -0.032000013 -0.0051908307
0.058747962 -0.03057188 -0.005111549
0.059999991 -0.030995293 -0.0049722153
-0.059999954 -0.029018922 -0.0050020781
0.059675034 -0.028834162 -0.0051075085
0.059999987 -0.029050453 -0.0049786908
-0.059999954 -0.02692485 -0.0049088793
0.059999954 -0.027114276 -0.0050871409
0.05999998 -0.02708878 -0.0048855064
-0.059309423 -0.02501921 -0.0051399884
0.059419047 -0.024537124 -0.0054101823
0.059999984 -0.025039895 -0.0049811378
-0.05999995 -0.022995172 -0.0049334071
0.059999954 -0.023015022 -0.0048690024
0.05999998 -0.023116475 -0.0051256842
-0.059847552 -0.020554826 -0.0054767057
0.058773663 -0.020237049 -0.0052537248
0.059999965 -0.02094163 -0.0051361858
-0.059220638 -0.01861066 -0.0052199806
