# .PCD v0.7 - Point Cloud Data file format
VERSION 0.7
FIELDS x y z
SIZE 4 4 4
TYPE F F F
COUNT 1 1 1
WIDTH 1270
HEIGHT 1
VIEWPOINT 0 0 0 1 0 0 0
POINTS 1270
DATA ascii
0.00099313562 -0.027516291 -0.021377137
0.0029722003 -0.027453363 -0.021453809
0.0050200615 -0.027566079 -0.021316482
0.0069988659 -0.02755899 -0.021325117
0.0089981081 -0.027468367 -0.021435531
0.010972311 -0.027478555 -0.021423111
0.012951707 -0.027453331 -0.021453863
0.01497406 -0.027475284 -0.021427108
0.017047202 -0.027471982 -0.021431131
0.018945215 -0.027507586 -0.021387743
0.021047419 -0.027517205 -0.021376025
0.022944408 -0.027565915 -0.021316675
0.024946585 -0.027514758 -0.021379003
0.026953774 -0.027532762 -0.021357061
0.029557345 -0.02713274 -0.021445286
0.030864958 -0.027550844 -0.021335032
0.03168847 -0.027305661 -0.021580461
0.034734137 -0.027359143 -0.021506092
0.03712612 -0.027522812 -0.021369198
0.039006468 -0.027529707 -0.021360803
0.040977009 -0.02753045 -0.021359887
0.042956579 -0.027507648 -0.021387674
0.044851657 -0.027007263 -0.021024428
-0.070000052 -0.024901656 -0.020980997
0.044169031 -0.024639519 -0.021123482
-0.070000067 -0.022996001 -0.021014329
0.043527968 -0.022490157 -0.021300593
-0.070000067 -0.02101179 -0.020986086
0.045131747 -0.020892082 -0.020878848
0.047014751 -0.020914026 -0.020888995
0.048919853 -0.020644492 -0.020892162
0.051041625 -0.020899642 -0.020893095
0.051540524 -0.020413423 -0.021060783
0.05471817 -0.020653222 -0.021096911
0.056950986 -0.020957528 -0.020837581
0.058932304 -0.020852502 -0.020944159
0.061094832 -0.020888243 -0.020911006
0.063013956 -0.02090613 -0.020895498
0.065023623 -0.02083388 -0.020955238
0.066951491 -0.020883109 -0.020910803
0.069218911 -0.020804642 -0.020843577
0.070000008 -0.020682916 -0.020696869
-0.068787426 -0.019026631 -0.021063915
0.044580877 -0.019068582 -0.021112461
0.041671406 -0.019658003 -0.022303281
0.048921246 -0.019830223 -0.021852542
0.051014312 -0.019845106 -0.021840326
0.052848995 -0.019794056 -0.021882223
0.05506108 -0.019821696 -0.021859538
0.056881808 -0.019823158 -0.021858335
0.059000988 -0.019843377 -0.021841744
0.061012235 -0.019858656 -0.021829206
0.062746696 -0.019826591 -0.02185552
0.064984672 -0.019817708 -0.021862812
0.067117818 -0.019792566 -0.021883447
0.0698203 -0.019054791 -0.021067003
-0.070000052 -0.017025348 -0.020966716
0.04500005 -0.017007016 -0.021002809
0.070000067 -0.016934214 -0.02106066
0.070000008 -0.016716501 -0.020571953
-0.070000045 -0.015017348 -0.020978775
0.04500005 -0.015026188 -0.021005159
0.070000052 -0.014940167 -0.021100739
0.07 -0.014985017 -0.021239771
-0.070000067 -0.012990137 -0.021012507
0.04500005 -0.012997448 -0.021038439
0.068805687 -0.01270296 -0.021048937
0.07 -0.013036013 -0.021062924
-0.070000052 -0.011023723 -0.021094
0.044961195 -0.010993438 -0.021033112
0.07000006 -0.01098964 -0.021032229
0.070000008 -0.011060298 -0.021064384
-0.070000052 -0.0089756204 -0.020986293
0.044471152 -0.0090803457 -0.020974152
0.070000052 -0.0090000397 -0.020950312
0.070000008 -0.0091776736 -0.021566838
-0.068971291 -0.0068973922 -0.021168558
0.04500005 -0.0069936002 -0.020980423
0.07000006 -0.0069901561 -0.020981714
0.070000008 -0.0071618175 -0.021906191
-0.06899979 -0.00482943 -0.021182699
0.04500005 -0.0050644507 -0.020979343
0.070000045 -0.0050347601 -0.020927696
0.070000008 -0.0051538814 -0.021212503
-0.070000038 -0.0029452401 -0.020920364
0.044422165 -0.0029969292 -0.021055372
0.070000038 -0.0028595503 -0.021015698
0.070000008 -0.0026677025 -0.020916112
-0.068895258 -0.00075328833 -0.021136696
0.045000054 -0.0010420845 -0.020965813
0.070000045 -0.0011116613 -0.021001175
0.070000008 -0.00071549474 -0.021745898
-0.070000052 0.00092577084 -0.021013096
0.04500005 0.0010160079 -0.021061314
0.070000045 0.0010393924 -0.020880925
0.070000008 0.0016364016 -0.020945042
-0.069451094 0.0028136699 -0.021034814
0.043903541 0.0027139154 -0.021044226
0.070000045 0.0030062748 -0.02100523
0.07 0.0029286635 -0.020667538
-0.069859751 0.0052443827 -0.021067461
0.04500005 0.0049576289 -0.020939775
0.068482317 0.0045732209 -0.021075645
0.070000008 0.0052350215 -0.021495145
-0.07000006 0.0069710114 -0.021062776
0.04500005 0.006984469 -0.021003176
0.07000006 0.0070456751 -0.021079982
0.07 0.0068866382 -0.021096617
-0.07000006 0.0090648523 -0.020973597
0.044464871 0.0090627521 -0.021052789
0.070000045 0.0091164894 -0.021012958
0.07 0.009017976 -0.021121874
-0.069155499 0.011180479 -0.021068303
0.044801921 0.010933615 -0.021080464
0.07000006 0.011064035 -0.020950291
0.07 0.01082781 -0.020941777
-0.070000038 0.012970549 -0.021070989
0.04500005 0.012987612 -0.02097851
0.070000052 0.012959311 -0.02102202
0.070000008 0.01296108 -0.020921841
-0.070000052 0.015103792 -0.020988688
0.04500005 0.015047505 -0.021032935
0.070000045 0.014976197 -0.0210253
-0.070000045 0.017039446 -0.020910773
0.04500005 0.017050439 -0.020924812
0.070000045 0.016996406 -0.020967461
0.070000008 0.017217115 -0.021280142
-0.070000052 0.019026689 -0.021018473
0.045027323 0.019036816 -0.02112546
0.046977434 0.01981842 -0.021862226
0.04880121 0.019816706 -0.021863634
0.051177934 0.019832447 -0.021850716
0.052905284 0.019839365 -0.021845035
0.055101566 0.01985864 -0.021829221
0.056839824 0.019826934 -0.021855243
0.059015766 0.019793089 -0.021883011
0.060911633 0.019813521 -0.021866247
0.062962748 0.019822504 -0.021858875
0.064804442 0.019820072 -0.021860871
0.06229895 0.018393235 -0.02284616
0.069752641 0.019187132 -0.021216772
0.070000008 0.018925643 -0.021035042
-0.07000006 0.020901592 -0.020927384
0.045098782 0.020768132 -0.020864617
0.046954632 0.020996153 -0.02079591
0.049049918 0.020976773 -0.020826999
0.049932331 0.020762185 -0.020956628
0.052968722 0.020918662 -0.020874077
0.054425415 0.020288927 -0.020903377
0.057121996 0.020891842 -0.020907395
0.058990348 0.020838248 -0.020966226
0.060976617 0.020967126 -0.020833585
0.062911943 0.020897103 -0.02090344
0.065047465 0.0210113 -0.020788707
0.066947579 0.020943768 -0.020859405
0.06774085 0.020401122 -0.020908935
0.070000008 0.020408753 -0.020544481
-0.070000067 0.022958623 -0.020968389
0.045000028 0.023024434 -0.021007372
-0.068628438 0.02412262 -0.021264734
0.045000028 0.024916675 -0.021067293
-0.068875425 0.026768118 -0.02128325
-0.066989124 0.027528321 -0.021362474
-0.063193209 0.027031278 -0.021569103
-0.063049845 0.027474333 -0.021428259
-0.060193382 0.026979094 -0.021505743
-0.059129886 0.027563011 -0.021320211
-0.057054751 0.027429415 -0.021482997
-0.053341907 0.027427977 -0.021354068
-0.05295511 0.027537651 -0.021351108
-0.051129173 0.027511168 -0.021383377
-0.048984244 0.02748874 -0.021410707
-0.047074985 0.027540781 -0.021347307
-0.0449447 0.027565936 -0.021316649
-0.042969983 0.027462523 -0.021442648
-0.041052833 0.027463946 -0.021440916
-0.038903657 0.027452864 -0.021454422
-0.035364602 0.027070262 -0.021393038
-0.034906421 0.02755045 -0.021335514
-0.033076335 0.027477559 -0.021424334
-0.031104382 0.027503354 -0.021392899
-0.027999992 0.027478812 -0.021421585
-0.026905626 0.027518183 -0.021374827
-0.025014315 0.027466008 -0.021438412
-0.023030622 0.027514894 -0.021378839
-0.021074995 0.027528429 -0.021362346
-0.018947331 0.027566612 -0.021315822
-0.016148003 0.027454823 -0.021451043
-0.014963275 0.027471406 -0.021431834
-0.012934443 0.027443262 -0.021466119
-0.011119409 0.027486792 -0.021413086
-0.0090289824 0.02750475 -0.021391204
-0.0069484273 0.027500764 -0.021396061
-0.0049521201 0.027432755 -0.021478919
-0.0028740575 0.027533146 -0.021356601
-0.0009892626 0.027507627 -0.021387698
0.00094420958 0.027568815 -0.02131314
0.0033999747 0.027397396 -0.021461537
0.0050321119 0.027497157 -0.021400452
0.0077885925 0.027095731 -0.021449203
0.0084850313 0.027139802 -0.021511819
0.011122427 0.027503759 -0.021392409
0.011671999 0.026710965 -0.021741064
0.014906161 0.027465789 -0.021438669
0.017217642 0.027253358 -0.021549696
0.019033242 0.027482502 -0.021418305
0.021035766 0.027515767 -0.021377791
0.021651717 0.026353804 -0.02155837
0.024991358 0.027512914 -0.021381255
0.027040565 0.027478773 -0.021422846
0.029269496 0.026770769 -0.021506615
0.031075433 0.027515585 -0.021377996
0.032996137 0.027516531 -0.021376848
0.035067134 0.027518518 -0.021374431
0.036023162 0.027128013 -0.021612609
0.039066292 0.027501887 -0.021394689
0.040943418 0.027533209 -0.021356529
0.042990502 0.027517151 -0.021376094
0.044912949 0.02683386 -0.021003624
-0.069198556 0.028289828 -0.020385435
-0.066897444 0.028318936 -0.020399144
-0.065009102 0.028366078 -0.020341694
-0.0628056 0.028317969 -0.020400316
-0.06091496 0.026663342 -0.020448016
-0.059071019 0.028321112 -0.020396482
-0.057019141 0.028277079 -0.020450143
-0.055002954 0.028290104 -0.020434273
-0.048133712 0.026758367 -0.020822749
-0.051124435 0.02788515 -0.020628678
-0.049083773 0.028323794 -0.020393223
-0.046909757 0.028303389 -0.020418085
-0.04501323 0.028333848 -0.020380965
-0.042997751 0.028298844 -0.020423619
-0.040901996 0.02829729 -0.020425519
-0.038988177 0.028284209 -0.020441461
-0.037011493 0.028333232 -0.020381726
-0.035049152 0.028334981 -0.020379594
-0.032956254 0.028345922 -0.020366255
-0.031408265 0.027696557 -0.020620663
-0.029095076 0.028351819 -0.020359075
-0.027010027 0.02833971 -0.020373829
-0.024960363 0.028322751 -0.020394495
-0.023146404 0.028346594 -0.020365432
-0.021020276 0.028292434 -0.020431433
-0.019037388 0.028321905 -0.020395519
-0.016924782 0.028397735 -0.020303125
-0.015039823 0.028308725 -0.020411581
-0.013042619 0.028324718 -0.020392096
-0.010908313 0.028278591 -0.020448295
-0.0096558863 0.028266218 -0.020463385
-0.0070855436 0.028286582 -0.020438567
-0.0047036381 0.027836131 -0.020679077
-0.0040955446 0.027233681 -0.020467212
-0.0007945667 0.028350934 -0.020360148
0.0010275666 0.028278548 -0.020448359
0.0028124189 0.028307252 -0.02041338
0.0051050107 0.028319158 -0.020398872
0.0069932002 0.028343037 -0.020369774
0.0089761866 0.028351136 -0.020359904
0.010110001 0.027661407 -0.020742137
0.013018874 0.028299116 -0.020423291
0.015712261 0.028144103 -0.020449067
0.017019302 0.028360361 -0.020348668
0.019021351 0.028316041 -0.02040267
0.020983309 0.028285708 -0.020439632
0.023200586 0.028312013 -0.020407576
0.025040532 0.028358776 -0.020350596
0.026985969 0.028350685 -0.020360461
0.028928773 0.028300349 -0.020421786
0.031111242 0.02831775 -0.02040058
0.032953508 0.028333649 -0.020381225
0.034518719 0.028146993 -0.020568432
0.036916673 0.028338321 -0.020375522
0.03892472 0.027613305 -0.020726653
0.040882319 0.028343251 -0.020369519
0.04307501 0.02835276 -0.020357933
0.044557299 0.02832607 -0.020356568
-0.069297038 -0.029082194 -0.018974129
-0.066943035 -0.02933892 -0.01896349
-0.064997472 -0.029161939 -0.019141765
-0.062975578 -0.029347599 -0.018948387
-0.060953405 -0.029359797 -0.018924635
-0.059024028 -0.02930576 -0.019020332
-0.056515921 -0.028905079 -0.019179985
-0.054964293 -0.028833473 -0.019086955
-0.052436646 -0.028745474 -0.019036708
-0.051092446 -0.028709482 -0.019265458
-0.04904769 -0.029286835 -0.019046461
-0.047035284 -0.02921823 -0.019161498
-0.045026965 -0.02927497 -0.019074934
-0.043068584 -0.02931525 -0.01900766
-0.040081441 -0.029234508 -0.019007469
-0.038646653 -0.028770665 -0.019034145
-0.037113953 -0.029341506 -0.018957028
-0.035021096 -0.029332172 -0.018967109
-0.032500878 -0.029223425 -0.019056117
-0.031015191 -0.029321097 -0.018988019
-0.028939296 -0.02927028 -0.019077396
-0.026917553 -0.029239796 -0.019126765
-0.025006806 -0.029273557 -0.019063467
-0.023004401 -0.029303646 -0.019009655
-0.021022402 -0.029325565 -0.018976441
-0.018978301 -0.029355006 -0.018926881
-0.017408371 -0.028929576 -0.019054981
-0.015457756 -0.029129114 -0.019171547
-0.012971107 -0.029269021 -0.019081762
-0.011471136 -0.028853551 -0.019163601
-0.0087391585 -0.029175565 -0.019184763
-0.0069810855 -0.029299453 -0.019033829
-0.0049903165 -0.029007113 -0.019174656
-0.0029685516 -0.029280407 -0.019060466
-0.0010264388 -0.029332006 -0.018980734
0.0013004589 -0.028924737 -0.019114718
0.0023235714 -0.029129947 -0.019135008
0.0051117595 -0.029309316 -0.019017633
0.0069673867 -0.029335504 -0.018971264
0.0090051768 -0.0292475 -0.019113328
0.010863726 -0.029262828 -0.019092804
0.012988736 -0.029307542 -0.019016884
0.014962141 -0.029262491 -0.019090042
0.016914856 -0.029271761 -0.019077705
0.018533854 -0.02924756 -0.019047588
0.020664131 -0.028942235 -0.019232098
0.023009114 -0.02933307 -0.018968344
0.025042351 -0.029315298 -0.019009411
0.026995353 -0.029297154 -0.01903666
0.028798876 -0.028957469 -0.019072613
0.030909562 -0.029307485 -0.019019419
0.033020534 -0.029337104 -0.018975172
0.035001751 -0.029303964 -0.019018708
0.036119286 -0.028915983 -0.018889116
0.039035313 -0.029270768 -0.019076372
0.040955774 -0.029298903 -0.019041425
0.042991631 -0.029263072 -0.019092701
0.044793155 -0.028936906 -0.018965345
-0.068694912 -0.027005175 -0.019038457
0.045000024 -0.026958929 -0.019100534
-0.070000052 -0.02510073 -0.019017819
0.045000028 -0.024974877 -0.019025577
-0.069633774 -0.022943521 -0.019223042
0.045131695 -0.022831365 -0.018796435
0.047030233 -0.022732619 -0.018757785
0.048786703 -0.022277735 -0.018900147
0.051016055 -0.022331446 -0.018860986
0.053064518 -0.02262779 -0.018885525
0.054484151 -0.022756375 -0.018800169
0.056957413 -0.022697369 -0.018800743
0.058953587 -0.022717565 -0.018776126
0.059697911 -0.022618646 -0.018965067
0.062331472 -0.022381445 -0.018877788
0.064950533 -0.022532092 -0.018747155
0.066885374 -0.022671742 -0.018831966
0.06919051 -0.022634532 -0.018769579
-0.068713851 -0.02096116 -0.019002536
0.045056298 -0.02106677 -0.019064691
0.046946578 -0.021859489 -0.019821757
0.049200989 -0.021885317 -0.019790282
0.051069573 -0.021909259 -0.019761113
0.05303935 -0.021852551 -0.019830208
0.055155516 -0.021850483 -0.01983273
0.057059113 -0.021871781 -0.019806778
0.059004541 -0.021841764 -0.019843355
0.061032023 -0.021872254 -0.019806203
0.063098207 -0.021878308 -0.019798825
0.064972147 -0.021858046 -0.01982351
0.066904895 -0.02186024 -0.019820841
0.069846272 -0.021114463 -0.019121476
0.070000008 -0.020835549 -0.018645566
-0.070000052 -0.019031664 -0.018991292
0.04500005 -0.019013032 -0.018988159
0.070000015 -0.018946229 -0.01905576
0.070000008 -0.019458041 -0.018422127
-0.070000045 -0.016978942 -0.018924398
0.044264257 -0.016848244 -0.018990466
0.069450773 -0.016993491 -0.019097518
0.070000008 -0.016754216 -0.01906888
-0.06908612 -0.01478791 -0.019106399
0.044811368 -0.014736546 -0.019097421
0.07 -0.01492074 -0.019074738
0.07 -0.014895062 -0.018569944
-0.070000015 -0.012992918 -0.018949308
0.04500005 -0.01302964 -0.018909298
0.070000067 -0.013069703 -0.019091187
0.07 -0.013086298 -0.01916128
-0.070000052 -0.01098226 -0.019031448
0.04500005 -0.010993181 -0.018935684
0.070000067 -0.010940503 -0.019070372
0.07 -0.011002559 -0.019151116
-0.069145232 -0.0087882327 -0.019190773
0.045086857 -0.0090902001 -0.019055123
0.070000052 -0.0090339063 -0.019008731
0.070000008 -0.0095277745 -0.019484237
-0.07000003 -0.0070041581 -0.018952264
0.044323578 -0.0068792626 -0.019069679
0.070000045 -0.0069055147 -0.018981045
0.070000008 -0.0063230721 -0.019490737
-0.06883347 -0.0047187121 -0.019052941
0.044361942 -0.0051122978 -0.019189209
0.070000052 -0.0049952823 -0.018987739
0.070000008 -0.004898014 -0.018742243
-0.070000052 -0.0029455936 -0.0190161
0.044881724 -0.0030390506 -0.019079138
0.070000052 -0.0029862034 -0.018991254
0.070000008 -0.0028605785 -0.019928314
-0.070000052 -0.00091045455 -0.019069189
0.04500005 -0.00098829542 -0.018933821
0.068696097 -0.0010807186 -0.019332314
0.070000008 -0.0013431758 -0.018418424
-0.07000006 0.0010192076 -0.018971218
0.04500005 0.00099425542 -0.018990491
0.069712691 0.00088802306 -0.019132873
0.070000008 0.0010836901 -0.018986052
-0.070000052 0.0029501808 -0.019091813
0.044496376 0.0031848527 -0.019072633
0.069966555 0.00264132 -0.019000791
0.070000008 0.0028001966 -0.018714113
-0.07000003 0.0050549093 -0.019023102
0.04500005 0.0050428687 -0.018962568
0.0698613 0.0049971165 -0.019068053
0.07 0.0049538929 -0.018884227
-0.070000067 0.0069252648 -0.019146638
0.044760484 0.006818491 -0.019093445
0.070000045 0.006914183 -0.019111732
0.070000008 0.0068560652 -0.018661151
-0.070000067 0.0090372087 -0.018976089
0.04500005 0.0090358676 -0.019040553
0.070000015 0.0090159494 -0.018851213
0.07 0.0090808887 -0.019225491
-0.070000023 0.01097119 -0.018958943
0.04500005 0.011046722 -0.019032499
0.07 0.010959554 -0.019077934
0.07 0.010725169 -0.018917728
-0.070000067 0.012928491 -0.018795753
0.044721879 0.012794591 -0.01902427
0.070000038 0.012996939 -0.01901703
0.070000008 0.012887514 -0.018498361
-0.07000006 0.014969285 -0.019008199
0.04500005 0.014950299 -0.018997261
0.070000045 0.01498989 -0.018971628
0.070000008 0.014643799 -0.019178418
-0.07000003 0.016999509 -0.0190372
0.04500005 0.016969621 -0.018990055
0.070000052 0.017033651 -0.019057831
0.070000008 0.016805653 -0.01920264
-0.070000052 0.018972345 -0.019009247
0.044502672 0.018500421 -0.018986728
0.067495793 0.019131197 -0.019175224
0.070000008 0.019679571 -0.018333882
-0.070000045 0.020988321 -0.019001333
0.045029614 0.021068126 -0.01902101
0.046877526 0.021851365 -0.019831661
0.049355537 0.021873834 -0.019804282
0.051061686 0.021839144 -0.019846546
0.052906632 0.021884078 -0.019791789
0.051942799 0.019588118 -0.020008435
0.056909949 0.021842383 -0.0198426
0.059034042 0.021854078 -0.019828353
0.060878493 0.021838577 -0.019847237
0.062962823 0.021853486 -0.019829072
0.060683209 0.020641766 -0.020313758
0.067048691 0.02184049 -0.01984491
0.069914646 0.020947751 -0.018952738
0.070000008 0.021468226 -0.018298406
-0.070000067 0.023006238 -0.019024691
0.044817261 0.022787783 -0.018947346
0.04699723 0.022683712 -0.018817382
0.047846828 0.021702437 -0.018950505
0.050974604 0.022630097 -0.018882716
0.052676447 0.022643726 -0.018920882
0.055016998 0.022695072 -0.018803542
0.056986809 0.022681091 -0.018820575
0.058714513 0.022199679 -0.018976629
0.060964603 0.022608349 -0.018909214
0.062741883 0.022399738 -0.01890466
0.065036952 0.022697821 -0.018800199
0.066966839 0.022663765 -0.018841688
0.069155127 0.022561722 -0.018817263
-0.07000003 0.025087904 -0.0190059
0.04487874 0.024600787 -0.019117851
-0.06993182 0.026859742 -0.019178677
0.045000024 0.027017683 -0.018962212
-0.068740845 0.028796125 -0.019043026
-0.065903351 0.028969685 -0.019100433
-0.064929016 0.029278953 -0.019068617
-0.062990658 0.029302776 -0.019030865
-0.061026424 0.029339189 -0.018964084
-0.059008799 0.02931278 -0.019012211
-0.056915436 0.029315948 -0.01900395
-0.054928664 0.029313233 -0.018996662
-0.053095866 0.029294195 -0.019049143
-0.050918955 0.029350836 -0.018933989
-0.049061764 0.029289193 -0.019044228
-0.046976071 0.029268488 -0.019081671
-0.044979554 0.029344222 -0.018949997
-0.042142622 0.029202541 -0.019084983
-0.039928306 0.028965058 -0.019212347
-0.03896052 0.029284392 -0.019055119
-0.035626046 0.028124524 -0.019409027
-0.0345948 0.029321868 -0.018978976
-0.032179028 0.029109744 -0.01901027
-0.030150009 0.02912483 -0.019193314
-0.029023681 0.029276578 -0.019068589
-0.027002763 0.029296765 -0.019041531
-0.025010565 0.029343087 -0.018954676
-0.02335823 0.028825473 -0.019098153
-0.021070104 0.029279344 -0.019061791
-0.019045716 0.029355666 -0.018936751
-0.01712258 0.029286336 -0.019042781
-0.014510623 0.029153958 -0.019051801
-0.012957899 0.029307403 -0.01901596
-0.011054808 0.029214837 -0.019182285
-0.0093246968 0.029245492 -0.019028336
-0.0070635611 0.029266059 -0.01908483
-0.0051299203 0.02934611 -0.018949294
-0.0029270323 0.029294841 -0.019045286
-0.0009826076 0.029307285 -0.019013511
0.0011889411 0.029278783 -0.019043444
0.0027208016 0.029227363 -0.019123876
0.0049139946 0.02930175 -0.019020971
0.0069284267 0.029235484 -0.019135576
0.0089657642 0.029270273 -0.019073583
0.010423563 0.029141674 -0.019114075
0.012696964 0.028920755 -0.019222954
0.014948399 0.029279793 -0.01906413
0.01693009 0.029317733 -0.018992787
0.019032221 0.029316021 -0.019000081
0.021075943 0.028724812 -0.0191857
0.023066046 0.0290436 -0.019191748
0.025038173 0.029295022 -0.01903587
0.027071841 0.029225554 -0.019155923
0.029052217 0.029042497 -0.019179361
0.03100083 0.029290488 -0.019038569
0.033298794 0.029253377 -0.018998714
0.035042506 0.028814815 -0.019199042
0.037127603 0.029298488 -0.019038459
0.038874105 0.029296841 -0.019037129
0.040051721 0.028683035 -0.019255713
0.041536644 0.028842622 -0.019229472
0.044762336 0.028962746 -0.018970426
-0.069016278 -0.030448502 -0.01682502
-0.066960759 -0.030481391 -0.016864086
-0.064944245 -0.030457685 -0.016908435
-0.063070573 -0.030489378 -0.016849136
-0.060966782 -0.03050608 -0.016817886
-0.058228411 -0.030106548 -0.017074138
-0.056985501 -0.030481976 -0.016863007
-0.055009224 -0.030429564 -0.01696104
-0.053029414 -0.030453769 -0.016915781
-0.050006289 -0.030403597 -0.016973339
-0.048036013 -0.03037033 -0.01693058
-0.04693098 -0.030452041 -0.016919013
-0.045055822 -0.030547833 -0.016739745
-0.043002255 -0.030504746 -0.01682038
-0.041041549 -0.030471276 -0.016883019
-0.039149463 -0.030482039 -0.016862867
-0.037043661 -0.030476823 -0.016872613
-0.034387309 -0.030036161 -0.017060854
-0.033277653 -0.030074924 -0.01694992
-0.031051943 -0.030446215 -0.016929895
-0.029045327 -0.030513294 -0.016804382
-0.027064817 -0.030443642 -0.016934708
-0.024992283 -0.030437293 -0.016946603
-0.0219338 -0.030221421 -0.016982341
-0.020977905 -0.030471679 -0.016882248
-0.018981265 -0.0305454 -0.016744316
-0.017020503 -0.030523255 -0.016785748
-0.014983705 -0.030440282 -0.016941002
-0.012985844 -0.030519769 -0.016792282
-0.010400834 -0.030438727 -0.016911535
-0.0088998582 -0.030485008 -0.016857311
-0.007029613 -0.030512234 -0.016806364
-0.0047610858 -0.030033207 -0.016945589
-0.0029503158 -0.030428359 -0.016963309
-0.00088244071 -0.029292425 -0.017053429
0.0009108978 -0.030495979 -0.016836779
0.0029261447 -0.030474026 -0.016877856
0.0050892304 -0.030463047 -0.016898412
0.0068019177 -0.029783102 -0.016925193
0.0090163816 -0.030437723 -0.016945792
0.011072198 -0.030434571 -0.016951684
0.012962484 -0.030499768 -0.016829712
0.014907828 -0.030469554 -0.016886219
0.017116113 -0.030504525 -0.016820787
0.018905032 -0.030510647 -0.016809342
0.020884825 -0.030491171 -0.016845774
0.023436163 -0.030254925 -0.016895348
0.024977561 -0.030464467 -0.016895754
0.027097847 -0.030276323 -0.017067604
0.028934518 -0.03046591 -0.016893042
0.030458018 -0.029781992 -0.017032273
0.031806264 -0.029641612 -0.017002467
0.035021875 -0.030442322 -0.016937183
0.037001181 -0.030460985 -0.01690227
0.039071329 -0.030476101 -0.016873978
0.040945794 -0.030444467 -0.016933154
0.042950213 -0.030518873 -0.016793961
0.044592336 -0.030470125 -0.016768109
-0.069171861 -0.028651373 -0.017158113
-0.066899136 -0.029925764 -0.017903697
-0.064971939 -0.029920617 -0.017913321
-0.062986612 -0.029923355 -0.017908202
-0.061157361 -0.029957764 -0.017843816
-0.059129465 -0.023751119 -0.018520525
-0.056887265 -0.029919563 -0.017915294
-0.054982025 -0.029927291 -0.017900836
-0.05295318 -0.029923989 -0.017907016
-0.051189501 -0.029947765 -0.017862523
-0.049018446 -0.029943738 -0.017870063
-0.043373313 -0.025464503 -0.018069511
-0.045138262 -0.029931378 -0.017893186
-0.042929195 -0.029935384 -0.017885687
-0.040983807 -0.02993626 -0.017884055
-0.031568181 -0.025889479 -0.017954769
-0.036916669 -0.029949054 -0.017860118
-0.034870218 -0.029940583 -0.017875966
-0.033074155 -0.029943937 -0.017869689
-0.030982327 -0.029933235 -0.017889712
-0.029053928 -0.02992199 -0.017910758
-0.027069714 -0.029932026 -0.017891981
-0.024785064 -0.029933168 -0.017889837
-0.023025254 -0.029918674 -0.017916957
-0.021076493 -0.02991293 -0.017927703
-0.019544311 -0.029934714 -0.017886952
-0.016981399 -0.029922616 -0.017909581
-0.015115106 -0.029961659 -0.017836526
-0.01221471 -0.029763618 -0.018110437
-0.011003571 -0.029911395 -0.017930578
-0.008908662 -0.029939327 -0.017878316
-0.0070117749 -0.029938487 -0.017879879
-0.005248487 -0.029924795 -0.017905504
-0.0027317263 -0.029940352 -0.017876403
-0.0010612943 -0.02993945 -0.017878085
0.00067912944 -0.029930357 -0.017895097
0.0031256115 -0.029954745 -0.017849464
0.0052974983 -0.029940082 -0.017876904
0.0065201982 -0.029921228 -0.017912177
0.0094352989 -0.029933628 -0.017888978
0.011548818 -0.030002041 -0.01776097
0.013100058 -0.029952109 -0.017854406
0.014899213 -0.029932367 -0.017891342
0.016727977 -0.029944316 -0.017868973
0.018886633 -0.02994751 -0.017863009
0.021152487 -0.029941002 -0.017875185
0.023046898 -0.029936507 -0.017883595
0.025285751 -0.029932458 -0.017891167
0.027157389 -0.02993023 -0.017895337
0.029330028 -0.029931759 -0.017892467
0.030915689 -0.029930685 -0.017894492
0.029218772 -0.027896134 -0.018834585
0.035100229 -0.029940603 -0.017875925
0.036968734 -0.029954607 -0.017849723
0.039160967 -0.029928621 -0.017898349
0.041020777 -0.029926887 -0.017901585
0.04279723 -0.029954042 -0.017850775
0.044983797 -0.029059255 -0.016958138
-0.07000006 -0.027040958 -0.017038682
0.045000032 -0.02702911 -0.017078523
-0.070000067 -0.024877721 -0.017014319
0.045127138 -0.024783811 -0.016794659
0.047015056 -0.024471119 -0.01660889
0.047696482 -0.023887161 -0.017164247
0.050884373 -0.024476729 -0.016606789
0.052930843 -0.024469798 -0.016617585
0.055058498 -0.024438856 -0.016656652
0.056998536 -0.024433885 -0.016666355
0.059031591 -0.024479583 -0.016599949
0.060938571 -0.024471428 -0.016605327
0.062930927 -0.024455551 -0.016634367
0.065093674 -0.024458673 -0.016628096
0.067114845 -0.02446498 -0.016619544
0.069119513 -0.02414668 -0.016602833
0.070000008 -0.024342986 -0.016701415
-0.070000052 -0.023061603 -0.017105483
0.04510982 -0.022625642 -0.016982056
0.04714825 -0.023695843 -0.017584024
0.048856378 -0.023702117 -0.017576374
0.050925955 -0.023645893 -0.01764489
0.053052068 -0.023715729 -0.017559798
0.054761674 -0.023642508 -0.017649019
0.057179909 -0.022525759 -0.017798614
0.058936309 -0.023706861 -0.017570598
0.060947739 -0.023685792 -0.017596276
0.063077703 -0.023738576 -0.017531956
0.06505537 -0.023714771 -0.017560957
0.06706614 -0.023717931 -0.017557113
0.06969291 -0.02317425 -0.017123464
0.070000008 -0.023083169 -0.017400194
-0.070000067 -0.020884294 -0.016988114
0.045000046 -0.021063903 -0.017011372
0.067557208 -0.020805882 -0.01731601
0.070000008 -0.021366529 -0.017238589
-0.070000052 -0.019042736 -0.016928043
0.04500005 -0.0189899 -0.016979827
0.070000038 -0.019135596 -0.016962117
0.070000008 -0.018551584 -0.016714888
-0.070000052 -0.017033398 -0.017045366
0.044465676 -0.016949251 -0.017203923
0.070000038 -0.017085597 -0.017007623
0.07 -0.017282387 -0.016865725
-0.070000045 -0.014955372 -0.017034441
0.045140501 -0.015013003 -0.017090414
0.07000003 -0.015010252 -0.016969182
0.07 -0.014901895 -0.016872635
-0.068744197 -0.013063527 -0.017144324
0.045000054 -0.013051656 -0.01698339
0.07000003 -0.012927066 -0.016958039
0.07 -0.013064118 -0.016844062
-0.070000052 -0.010989422 -0.01705415
0.04504256 -0.010976632 -0.017048784
0.070000023 -0.011084638 -0.017061636
0.07 -0.01090078 -0.017043903
-0.07000006 -0.0089896489 -0.017048588
0.04500005 -0.0090095364 -0.017098401
0.068735063 -0.0093684373 -0.016901484
0.070000008 -0.0086155087 -0.016723664
-0.07000003 -0.0070054219 -0.016962174
0.045000046 -0.0070732269 -0.016986379
0.068621755 -0.006599287 -0.017157733
0.070000008 -0.0064175278 -0.017223274
-0.070000067 -0.0050693564 -0.017006524
0.04500005 -0.0050121611 -0.016959364
0.07000003 -0.0049770549 -0.016979044
0.070000008 -0.004047465 -0.017051876
-0.070000038 -0.0030078569 -0.017020777
0.04500005 -0.0029978098 -0.016982747
0.069757946 -0.0028633974 -0.017101916
0.070000008 -0.0029621734 -0.016606856
-0.070000067 -0.0010754496 -0.016916094
0.045000054 -0.00099657674 -0.016978092
0.070000038 -0.00097323587 -0.016882522
0.048207514 -0.0016810844 -0.020063233
-0.070000067 0.00099003548 -0.016957143
0.04500005 0.00099739037 -0.017013388
0.070000038 0.0010619714 -0.017054684
0.07 0.0011455957 -0.017068474
-0.070000045 0.0028955312 -0.016982092
0.045138944 0.0029846577 -0.01701409
0.068692036 0.0027017624 -0.017168237
0.070000008 0.0027798142 -0.017239189
-0.070000052 0.0050792121 -0.017017964
0.045068167 0.0049493033 -0.017051747
0.069317117 0.0047179046 -0.017090309
0.070000008 0.0046425182 -0.017392514
-0.070000038 0.0070672338 -0.017069453
0.044981293 0.0069167633 -0.0170881
0.070000052 0.0069737993 -0.016918443
0.070000008 0.0076351659 -0.016742265
-0.06977018 0.0089126593 -0.017189167
0.045000054 0.0088629462 -0.017033519
0.070000038 0.0089517403 -0.017004278
0.07 0.0091927396 -0.016865525
-0.070000052 0.011133542 -0.016958121
0.044571731 0.010720833 -0.017107675
0.069249973 0.011005654 -0.017237257
0.07 0.010734147 -0.017127879
-0.070000052 0.013004677 -0.017056637
0.04500005 0.012962664 -0.017010899
0.06926652 0.013090506 -0.017225577
0.070000008 0.013380458 -0.01715702
-0.07000006 0.015021075 -0.016924862
0.045000054 0.015035831 -0.017096195
0.070000045 0.015086132 -0.01703864
0.070000008 0.015230845 -0.017109144
-0.070000045 0.016986117 -0.016971111
0.044630103 0.016920604 -0.017181652
0.070000052 0.016899332 -0.017051037
0.070000008 0.017454147 -0.016934682
-0.070000052 0.018928131 -0.017022774
0.044576067 0.018831531 -0.017082224
0.070000052 0.018996922 -0.017053414
0.070000008 0.019045632 -0.017104331
-0.07000006 0.020914966 -0.017031336
0.04500005 0.020986965 -0.016981058
0.070000038 0.020902939 -0.017033819
0.070000008 0.02095652 -0.016704645
-0.070000052 0.022884505 -0.016938977
0.044280142 0.022525422 -0.017099019
0.046987873 0.023701586 -0.017577028
0.047330096 0.023170058 -0.01793569
0.050972573 0.023628099 -0.017666573
0.053001985 0.023655523 -0.017633155
0.054970261 0.023672333 -0.017612679
0.056947146 0.023670783 -0.01761457
0.05899597 0.023688614 -0.017592836
0.060991518 0.023707177 -0.017570211
0.063027859 0.023674337 -0.017610233
0.064962342 0.023638444 -0.017653972
0.066933848 0.023604739 -0.017695043
0.068310469 0.022967374 -0.017185749
0.070000008 0.022604236 -0.016754162
-0.068556748 0.02489038 -0.016928466
0.043559965 0.024335701 -0.016979191
0.04685726 0.024436442 -0.016659049
0.049022272 0.02442193 -0.01668022
0.050559431 0.023759525 -0.01677558
0.052850328 0.024474928 -0.016607171
0.055123471 0.024482284 -0.016593149
0.057044588 0.024445349 -0.016643718
0.058988154 0.024430482 -0.016664879
0.061030421 0.024540292 -0.016512575
0.062986776 0.02449836 -0.016580429
0.064718768 0.024542361 -0.016617831
0.066854455 0.024454325 -0.016631139
0.069217131 0.024432842 -0.016582554
-0.070000052 0.026950687 -0.017127762
0.045000032 0.026962023 -0.017098879
-0.069538571 0.029055318 -0.017169775
-0.06701909 0.029938597 -0.017879678
-0.06519372 0.029934032 -0.017888224
-0.062891997 0.029931469 -0.017893016
-0.061065707 0.02994623 -0.017865399
-0.05890961 0.029954521 -0.017849881
-0.057224769 0.029936675 -0.017883284
-0.055242565 0.029931812 -0.017892376
-0.052873161 0.02993801 -0.017880773
-0.050898459 0.029969621 -0.017821629
-0.04891932 0.029934194 -0.017887915
-0.047201619 0.029919447 -0.01791551
-0.044879325 0.029948452 -0.017861234
-0.043035399 0.029946307 -0.017865259
-0.04084301 0.029943744 -0.017870048
-0.038958404 0.029950809 -0.017856834
-0.036934633 0.029942364 -0.017872632
-0.034906711 0.029956123 -0.017846886
-0.033088852 0.029934868 -0.017886661
-0.031006007 0.029948313 -0.017861502
-0.029092129 0.029942248 -0.017872857
-0.026848568 0.029914945 -0.017923934
-0.024735872 0.029926235 -0.017902816
-0.022946892 0.02993642 -0.017883752
-0.021117551 0.029901233 -0.017949592
-0.018975735 0.029946208 -0.017865434
-0.017140206 0.029933751 -0.017888745
-0.015103064 0.029929861 -0.01789603
-0.013035594 0.029938392 -0.01788006
-0.011183386 0.029940048 -0.017876968
-0.0090791127 0.029944712 -0.017868238
-0.0070667565 0.029938988 -0.017878942
-0.0048880833 0.029926682 -0.017901976
-0.0031411396 0.029929794 -0.017896153
-0.00093203236 0.029936839 -0.017882971
0.0011232011 0.029936843 -0.017882964
0.0026542365 0.029921679 -0.017911335
0.0051645404 0.029947212 -0.017863562
0.0070077074 0.029944018 -0.017869532
0.0088958424 0.029953491 -0.017851807
0.011178678 0.029915785 -0.017922359
0.012907859 0.029936578 -0.017883459
0.014895676 0.029941319 -0.017874591
0.016975461 0.029953191 -0.017852373
0.019119389 0.029942865 -0.017871698
0.020807741 0.029945185 -0.017867357
0.023041757 0.029935872 -0.017884778
0.025101211 0.029929673 -0.017896371
0.026970221 0.02993199 -0.017892044
0.028838405 0.029911842 -0.017929746
0.030904701 0.029939253 -0.017878449
0.033628352 0.029931804 -0.017892392
0.035121951 0.029948613 -0.017860942
0.037232399 0.029950675 -0.017857088
0.039131768 0.029933151 -0.017889874
0.041062694 0.029952463 -0.017853739
0.043107353 0.029950004 -0.017858341
0.044961698 0.029025678 -0.017039616
-0.069243148 0.030431906 -0.016842019
-0.067105502 0.030436065 -0.016948888
-0.063645653 0.030124649 -0.01706518
-0.062944785 0.030455407 -0.016912689
-0.061005775 0.030442392 -0.016937044
-0.058974907 0.030505478 -0.016819024
-0.056988146 0.030501949 -0.016825628
-0.05510262 0.030476438 -0.016861111
-0.053097367 0.030459726 -0.016904619
-0.051034402 0.030500712 -0.016827932
-0.048916027 0.03045455 -0.01691431
-0.046090044 0.030307204 -0.01680338
-0.044993419 0.030435618 -0.016949724
-0.043010648 0.030463129 -0.016898263
-0.040803742 0.029456433 -0.01711737
-0.039010145 0.030402051 -0.0169231
-0.036931001 0.030478751 -0.016869003
-0.034930233 0.030506331 -0.016817417
-0.032280684 0.030259723 -0.01705128
-0.03091752 0.030500127 -0.016829027
-0.029128686 0.030477416 -0.016871532
-0.02617074 0.030006835 -0.016978221
-0.024932779 0.030430095 -0.016960058
-0.023013305 0.030481733 -0.016863447
-0.021087339 0.030415017 -0.016988272
-0.01906552 0.030461663 -0.016900994
-0.016359648 0.030419363 -0.016870689
-0.015085754 0.030372564 -0.017018272
-0.012957396 0.030489044 -0.016849762
-0.011046492 0.030511785 -0.016807217
-0.0090098064 0.030440904 -0.016939841
-0.0070357635 0.030458489 -0.016906934
-0.005349962 0.029955951 -0.016949788
-0.0029055388 0.030463057 -0.016898388
-0.00045979221 0.030214228 -0.017156305
0.0010396035 0.030379828 -0.016916661
0.0029482883 0.030471029 -0.016883451
0.0049289116 0.030511191 -0.016808324
0.0069996128 0.030493055 -0.016842254
0.0090454454 0.030439306 -0.016942827
0.010922961 0.030480022 -0.016866647
0.013012318 0.030346427 -0.016908785
0.014199996 0.030474145 -0.016877631
0.017079888 0.030466696 -0.016891556
0.018951071 0.030497158 -0.016834578
0.021087792 0.030451179 -0.016920611
0.022915455 0.030450711 -0.016921502
0.024969898 0.030475898 -0.01687436
0.02714075 0.030456536 -0.016910577
0.029525151 0.030158054 -0.016958063
0.031338032 0.030079635 -0.016963435
0.032884419 0.030488737 -0.016850334
0.034944441 0.030428929 -0.01696221
0.036628153 0.030444119 -0.016859386
0.038926244 0.030454742 -0.016913949
0.04094037 0.030446423 -0.016929513
0.043057784 0.030516397 -0.016798576
0.044575199 0.030396266 -0.016816003
-0.067768693 -0.032011576 -0.014001013
-0.062475868 -0.032009132 -0.014005587
-0.058771312 -0.03200883 -0.014006156
-0.05612082 -0.032007437 -0.014008757
-0.054026723 -0.03200208 -0.014018786
-0.053306416 -0.032002416 -0.014018157
-0.050959192 -0.032004513 -0.014014233
-0.049176529 -0.032003157 -0.014016769
-0.047585562 -0.032004111 -0.014014987
0.060911633 0.019813521 -0.021866247
-0.040220074 -0.032007094 -0.014009407
-0.038450133 -0.032002941 -0.014017168
-0.037168697 -0.032006398 -0.014010709
-0.035302483 -0.032001358 -0.014020135
-0.033857759 -0.032002106 -0.014018735
-0.029021617 -0.032003108 -0.014016863
-0.026538938 -0.03200924 -0.014005383
-0.024131721 -0.032004826 -0.014013648
-0.022282301 -0.032010652 -0.014002742
-0.019769263 -0.032005012 -0.014013296
-0.016463712 -0.032009631 -0.014004659
-0.012969295 -0.032009851 -0.014004245
-0.0115192 -0.032010484 -0.01400306
-0.0092177549 -0.032006916 -0.014009738
-0.0048006959 -0.032003604 -0.014015935
-0.0036451144 -0.032008477 -0.014006819
0.001940245 -0.032006949 -0.014009668
0.0053474624 -0.032006428 -0.014010645
0.0068076276 -0.032006245 -0.01401099
0.01504183 -0.032007586 -0.014008478
0.022631017 -0.032001466 -0.014019934
0.027244259 -0.032003064 -0.014016945
0.032867454 -0.032009788 -0.014004366
0.034475587 -0.032004673 -0.014013935
0.03762285 -0.032012068 -0.014000095
0.040476829 -0.032011256 -0.014001613
0.042859793 -0.032008555 -0.014006671
-0.069064327 -0.030930996 -0.015045218
-0.066933304 -0.031485215 -0.014985863
-0.065029211 -0.031498142 -0.014961687
-0.062978372 -0.031501275 -0.014955821
-0.060987905 -0.031501383 -0.014955614
-0.058883306 -0.031477217 -0.015000847
-0.056980822 -0.031530231 -0.014901642
-0.054958712 -0.031468675 -0.015016793
-0.052949026 -0.031528622 -0.014904647
-0.051046524 -0.031476632 -0.015001923
-0.048867542 -0.031379245 -0.015140357
-0.047029532 -0.031512354 -0.014935105
-0.04441243 -0.03112058 -0.015218943
-0.042983267 -0.031459123 -0.015034687
-0.041041359 -0.031482637 -0.014990697
-0.038281266 -0.031011276 -0.015311972
-0.036265433 -0.030645084 -0.015309857
-0.035037741 -0.031475909 -0.015003282
-0.033145167 -0.03145422 -0.015043508
-0.030946214 -0.031439491 -0.015071414
-0.028936762 -0.031491283 -0.014974516
-0.02646457 -0.030959275 -0.0151088
-0.025075475 -0.031455163 -0.015042089
-0.023010781 -0.031464871 -0.015023923
-0.021030417 -0.031475078 -0.015004838
-0.019019177 -0.031469718 -0.015014858
-0.016960371 -0.031464003 -0.01502556
-0.015186914 -0.031019468 -0.015103449
-0.012514278 -0.030972935 -0.015155776
-0.011041965 -0.031472918 -0.015008874
-0.0090227099 -0.031488534 -0.014979669
-0.0069534867 -0.031492881 -0.014971524
-0.0051257755 -0.030958394 -0.015096058
-0.0029322256 -0.031514682 -0.014930722
-0.001041444 -0.03142003 -0.015107845
0.0013563315 -0.031530745 -0.014900693
0.0029580651 -0.031479347 -0.014996852
0.0050058169 -0.031466197 -0.015021462
0.0070081064 -0.031483632 -0.014988829
0.0089093102 -0.031446312 -0.015058665
0.011173832 -0.031482711 -0.014975636
0.013016165 -0.031464223 -0.015025143
0.01521306 -0.031439055 -0.01506058
0.016968522 -0.031476006 -0.015003091
0.019005502 -0.031448647 -0.015054298
0.020968171 -0.031505972 -0.014947025
0.022163779 -0.031189431 -0.015215388
0.025037209 -0.031498712 -0.014960604
0.026419509 -0.031327978 -0.01512308
0.028966768 -0.031474363 -0.015006166
0.030987415 -0.031454429 -0.015043483
0.032133143 -0.031326618 -0.015242449
0.034983456 -0.031407844 -0.015130625
0.036992684 -0.031476118 -0.015002898
0.038972676 -0.031485386 -0.014985565
0.041022912 -0.031470288 -0.015013804
0.042422846 -0.03097171 -0.015091804
0.044814311 -0.031015791 -0.015028168
-0.070000052 -0.028925907 -0.015003458
0.044454817 -0.028035492 -0.015097126
-0.069275551 -0.02659514 -0.015162564
0.044559192 -0.02672152 -0.01531244
-0.070000052 -0.024946103 -0.015008365
0.045116331 -0.02505777 -0.015035711
0.046158798 -0.024863653 -0.015234828
0.049006548 -0.025382819 -0.015033791
0.050967492 -0.025358766 -0.015078763
0.052984092 -0.025424873 -0.014955137
0.055001985 -0.025414763 -0.014974042
0.056891561 -0.025455857 -0.014897185
0.059062533 -0.025416462 -0.014970869
0.061009135 -0.025274955 -0.015075594
0.062958792 -0.025383212 -0.01503305
0.065047629 -0.025442202 -0.014922725
0.066972837 -0.025388228 -0.015023659
0.069091119 -0.025055671 -0.015069098
0.070000008 -0.024679944 -0.0148474
-0.070000075 -0.023038702 -0.015009644
0.044669759 -0.022941573 -0.015097101
0.07000003 -0.023007555 -0.015164409
0.070000008 -0.023204468 -0.01557479
-0.070000052 -0.02104863 -0.015001538
0.045000046 -0.020979078 -0.015014789
0.07000006 -0.021050934 -0.015001008
0.070000008 -0.020905245 -0.014555252
-0.069170453 -0.0185866 -0.015180369
0.044831876 -0.01905299 -0.014978636
0.070000052 -0.018924072 -0.014872555
0.070000008 -0.018779092 -0.015780421
-0.07000006 -0.017029919 -0.015037567
0.04500005 -0.017000884 -0.015044257
0.068511806 -0.017050277 -0.015038218
0.07 -0.016901577 -0.01504549
-0.068205148 -0.014923257 -0.015041315
0.04500005 -0.01503068 -0.014873643
0.070000038 -0.015034962 -0.015050045
0.07 -0.015218897 -0.014796173
-0.070000038 -0.01305067 -0.015059952
0.043871876 -0.012717342 -0.015214538
0.070000052 -0.013091075 -0.015070631
0.070000008 -0.013299372 -0.015173608
-0.070000045 -0.011010653 -0.015091455
0.04500005 -0.010970767 -0.014984705
0.067892723 -0.010766192 -0.015512923
0.07 -0.010851165 -0.014999728
-0.068950199 -0.0086264824 -0.015089428
0.044839222 -0.0089919195 -0.015145288
0.06975133 -0.009009012 -0.015130642
0.070000008 -0.0087365126 -0.015386275
-0.070000038 -0.0068421941 -0.01505213
0.04500005 -0.0069858585 -0.015058557
0.070000038 -0.0069919438 -0.014995977
0.07 -0.0073022833 -0.015280427
-0.070000067 -0.005057517 -0.014967861
0.044727895 -0.004778123 -0.015051301
0.069344662 -0.0046631321 -0.015112058
0.070000008 -0.0056873956 -0.015185567
-0.070000045 -0.0030322159 -0.015054242
0.04500005 -0.0030092197 -0.014977119
0.070000023 -0.0030379836 -0.014838922
0.07 -0.0029777468 -0.01501412
-0.070000008 -0.00093120849 -0.014959306
0.045135189 -0.0008983236 -0.015087002
0.070000045 -0.00098443695 -0.015068485
0.070000008 -0.00096527254 -0.014816876
-0.068844035 0.001047662 -0.015513563
0.045000054 0.0010294378 -0.015106833
0.070000008 0.00092958205 -0.014945325
0.070000008 0.00041247346 -0.015041335
-0.070000052 0.0029852127 -0.014980752
0.045000054 0.0029519422 -0.014974874
0.070000038 0.0030961151 -0.014987207
0.07 0.003054599 -0.015013449
-0.070000045 0.0051072123 -0.015095642
0.04500005 0.0049736332 -0.014985617
0.070000045 0.0048923055 -0.014995595
0.070000008 0.0050063711 -0.014998464
-0.070000045 0.0069684964 -0.015074164
0.044449907 0.0068770377 -0.015107936
0.068654217 0.0071496307 -0.015195902
0.070000008 0.006822763 -0.01492849
-0.068049267 0.0091935927 -0.015471156
0.04500005 0.0089910896 -0.014927419
0.07000003 0.0089607155 -0.015128527
0.07 0.0092244074 -0.015145404
-0.07000006 0.010956386 -0.015072966
0.045021545 0.01110225 -0.015007928
0.070000023 0.011023042 -0.01502946
0.070000008 0.010891204 -0.014810938
-0.070000067 0.012962275 -0.01499159
0.044919319 0.013070698 -0.015033104
0.068822451 0.013191682 -0.015119075
0.070000008 0.01383289 -0.014697114
-0.068165325 0.014589328 -0.014983548
0.044765413 0.014791976 -0.015025294
0.07000006 0.014861744 -0.014931638
0.070000008 0.014864091 -0.014710886
-0.070000038 0.01684792 -0.015147081
0.044700887 0.017042145 -0.014981426
0.06849467 0.016961807 -0.01505035
0.070000008 0.01683487 -0.015230879
-0.06787885 0.018802833 -0.015068444
0.04500005 0.018970225 -0.01503264
0.070000052 0.019013898 -0.015077404
-0.068862289 0.021024378 -0.015149552
0.044349104 0.020491412 -0.014973909
0.07000006 0.021005722 -0.015100363
0.070000008 0.020964945 -0.014493094
-0.070000045 0.023047503 -0.015063413
0.044942919 0.022776645 -0.015068667
0.070000038 0.023078984 -0.015030398
0.070000008 0.023509255 -0.01502635
-0.07000003 0.025036981 -0.01498046
0.044675633 0.02490649 -0.015055758
0.046885952 0.025410552 -0.014981916
0.048957627 0.025360204 -0.015076073
0.051027734 0.025373578 -0.015051062
0.053080343 0.024979906 -0.015104581
0.05511599 0.02541383 -0.014975792
0.05702851 0.025424512 -0.014955798
0.059040617 0.024879036 -0.015114577
0.060974818 0.025427455 -0.014950291
0.063009389 0.025360918 -0.015074741
0.063155539 0.024727061 -0.015229952
0.066955537 0.025396554 -0.015008085
0.068973519 0.024832506 -0.01496511
0.070000008 0.02525378 -0.014492372
-0.07000006 0.026933977 -0.014909537
0.045000028 0.027034888 -0.015048889
-0.07000006 0.028962057 -0.014939236
0.045000032 0.029007586 -0.01500698
-0.068500355 0.031117516 -0.015075997
-0.066991337 0.031485517 -0.014985296
-0.064988799 0.031494781 -0.014967976
-0.062859125 0.031395189 -0.015092328
-0.059680451 0.031164629 -0.014993017
-0.059005424 0.031493608 -0.014970155
-0.057034649 0.031466261 -0.015021329
-0.054972351 0.031446122 -0.015059014
-0.052934151 0.031499498 -0.014959149
-0.0510762 0.031489365 -0.014978106
-0.0489715 0.031469718 -0.015014838
-0.046938948 0.031480417 -0.014994858
-0.045039319 0.031483963 -0.014988205
-0.043089449 0.03143125 -0.0150689
-0.039957576 0.03127886 -0.015146934
-0.038988702 0.03149322 -0.014970884
-0.03711101 0.031462587 -0.015028181
-0.035040919 0.031480212 -0.01499522
-0.032940209 0.031460248 -0.015032589
-0.030878114 0.031471837 -0.015010906
-0.029017277 0.03141905 -0.01510968
-0.02697558 0.031521469 -0.014918023
-0.024994375 0.031407036 -0.015115171
-0.023027064 0.0314813 -0.014993195
-0.02104182 0.030988174 -0.015054071
-0.018896457 0.031090423 -0.015183053
-0.016626341 0.031195341 -0.015201909
-0.015092947 0.031463344 -0.015026788
-0.01316835 0.031100104 -0.01521873
-0.010973897 0.031486586 -0.014983321
-0.0095981332 0.030587582 -0.015071389
-0.0069573708 0.031408869 -0.015095931
-0.0049434179 0.030630093 -0.015302686
-0.0035465048 0.030959686 -0.014953345
-0.0014641995 0.031415541 -0.015044302
0.0010156863 0.031461295 -0.015030635
0.0029565762 0.031493738 -0.014969913
0.0049715997 0.031479489 -0.014996585
0.0070702285 0.031498305 -0.014961394
0.0094934562 0.030495385 -0.015172862
0.011039978 0.031519216 -0.014922237
0.012967008 0.031536829 -0.014889308
0.015014855 0.031493865 -0.014969682
0.016437508 0.031359904 -0.01513369
0.018985672 0.031497717 -0.014962471
0.021003582 0.031458605 -0.01503566
0.022749688 0.03105454 -0.015152028
0.024965419 0.031490669 -0.01497566
0.02692146 0.031488929 -0.014978923
0.029009672 0.031492393 -0.014972437
0.031009644 0.031476364 -0.015002412
0.032175917 0.031357948 -0.015088875
0.03501074 0.03146429 -0.01502502
0.036929812 0.031443212 -0.015064443
0.038977016 0.031490959 -0.014975123
0.041037779 0.031068506 -0.015052418
0.042672615 0.031429205 -0.015073179
0.044806838 0.03101936 -0.014934058
-0.068954319 0.032010164 -0.014003659
-0.066505566 0.032002993 -0.014017073
-0.064976647 0.032005213 -0.014012921
-0.062581718 0.032009229 -0.01400541
-0.061237894 0.032006271 -0.014010946
-0.059105054 0.032004815 -0.014013667
-0.055690449 0.032011081 -0.014001943
-0.050457153 0.032001883 -0.014019151
-0.048140597 0.032003261 -0.014016576
-0.045683779 0.032005336 -0.01401269
-0.043769687 0.032004818 -0.014013659
-0.040444233 0.03200563 -0.014012144
-0.035833586 0.032004271 -0.014014687
-0.033945426 0.032002032 -0.014018877
-0.02548006 0.032011781 -0.014000633
-0.023648055 0.032006901 -0.014009764
-0.020954683 0.032000709 -0.01402135
-0.018719483 0.032005757 -0.014011908
-0.017534832 0.032002177 -0.014018604
-0.014527785 0.032003604 -0.014015937
-0.013213515 0.032007542 -0.014008562
-0.010678774 0.032009907 -0.014004136
-0.0077137938 0.032011051 -0.014002004
-0.005582165 0.03200198 -0.01401897
-0.003106968 0.032007128 -0.01400934
-0.0010266285 0.032001574 -0.014019741
8.3567575e-05 0.032011457 -0.014001239
0.006430842 0.032005187 -0.014012973
0.0084962957 0.032006659 -0.014010214
0.01133374 0.032003202 -0.014016689
0.012590686 0.032007985 -0.01400773
0.014614441 0.03200639 -0.014010726
0.01711409 0.032005496 -0.014012387
0.01826892 0.03200721 -0.014009182
0.020886511 0.032006647 -0.014010238
0.024804424 0.032007914 -0.014007869
0.027488649 0.032003764 -0.014015633
0.031267889 0.032009803 -0.014004327
0.033085227 0.032004278 -0.014014669
0.038006987 0.032003392 -0.014016336
-0.069270678 -0.032366436 -0.013030927
-0.067066804 -0.032398082 -0.013079556
-0.065036409 -0.032468636 -0.012915876
-0.062419076 -0.032030314 -0.013188993
-0.060878105 -0.031777434 -0.013190138
-0.058933377 -0.032437541 -0.012985385
-0.056948572 -0.032410432 -0.013058432
-0.054699685 -0.032250512 -0.013246995
-0.052678984 -0.031952925 -0.013145663
-0.050895758 -0.032436769 -0.012988509
-0.049009554 -0.03246744 -0.012915156
-0.045943536 -0.032226462 -0.013189506
-0.044932343 -0.032431491 -0.013001102
-0.043039497 -0.032432485 -0.013004467
-0.040307511 -0.032294665 -0.013106698
-0.038979959 -0.032420289 -0.013050147
-0.037066877 -0.0324095 -0.013058674
-0.034276031 -0.032170203 -0.01323302
-0.03234411 -0.031742353 -0.013145494
-0.03090856 -0.032413613 -0.0130644
-0.027653864 -0.031651072 -0.01336137
-0.026967334 -0.032439772 -0.012996169
